18.75177,15.00699,1.234409,0
18.75177,15.00699,1.057819,0
18.75177,15.00699,0.8813305,0
18.75177,15.00699,0.7049618,0
18.75177,15.00699,0.5286522,0
18.75177,15.00699,0.3523998,0
18.75177,15.00699,0.1761894,0
18.75177,15.00699,-1.907349E-06,0
18.75177,15.00699,-0.1761932,0
18.75177,15.00699,-0.3524036,0
18.75177,15.00699,-0.5286522,0
18.75177,15.00699,-0.704958,0
18.61536,14.8978,-0.8749256,0
16.80988,13.45288,-0.9482689,0
15.32275,12.26279,-1.008678,0
14.07654,11.26541,-1.059301,0
12.7323,10.18961,-1.078241,0
11.87744,9.505493,-1.117992,0
11.65314,9.325989,-1.207022,0
11.47125,9.180389,-1.296732,0
10.76733,8.617035,-1.319181,0
10.13098,8.107758,-1.337347,0
9.583618,7.669708,-1.356165,0
9.091614,7.27597,-1.373079,0
8.649841,6.922424,-1.388834,0
8.25592,6.607178,-1.404451,0
7.872009,6.299957,-1.414488,0
7.514648,6.013947,-1.422344,0
7.187622,5.752228,-1.429535,0
6.887268,5.511841,-1.436142,0
6.610352,5.290222,-1.44223,0
6.354187,5.085236,-1.447863,0
6.116577,4.895081,-1.453089,0
5.895508,4.71817,-1.457949,0
5.689331,4.553131,-1.462482,0
5.496521,4.398834,-1.466722,0
5.315796,4.254211,-1.470694,0
5.146057,4.118378,-1.474428,0
4.986328,3.99054,-1.47794,0
18.71136,14.93179,5.725147,0
18.71136,14.93182,5.539814,0
18.71136,14.93182,5.355104,0
18.71136,14.93182,5.171003,0
18.71136,14.93182,4.987486,0
18.71136,14.93182,4.804525,0
18.71136,14.93182,4.622107,0
18.71136,14.93182,4.440201,0
18.71136,14.93182,4.258791,0
18.71136,14.93182,4.077852,0
18.71136,14.93182,3.897367,0
18.71136,14.93182,3.717312,0
18.71136,14.93182,3.537664,0
18.71136,14.93182,3.358412,0
18.71136,14.93182,3.179522,0
18.71136,14.93182,3.000986,0
18.71136,14.93182,2.822775,0
18.71136,14.93182,2.644871,0
18.71136,14.93182,2.467249,0
18.71136,14.93182,2.289911,0
18.71136,14.93179,2.112806,0
18.71136,14.93182,1.935944,0
18.71136,14.93182,1.759281,0
18.71136,14.93182,1.582813,0
18.71136,14.93179,1.406509,0
18.71136,14.93182,1.230364,0
18.71136,14.93182,1.054356,0
18.71136,14.93182,0.8784561,0
18.71136,14.93182,0.7026539,0
18.71136,14.93182,0.5269299,0
18.71136,14.93182,0.351244,0
18.71136,14.93182,0.175621,0
18.71136,14.93182,-1.907349E-06,0
18.71136,14.93179,-0.1756172,0
18.71136,14.93179,-0.3512516,0
18.71136,14.93182,-0.5269241,0
18.71136,14.93179,-0.702652,0
18.62549,14.86328,-0.8744259,0
16.81995,13.42245,-0.9477787,0
15.33264,12.23557,-1.008202,0
14.08612,11.24084,-1.058844,0
12.75049,10.17499,-1.078577,0
11.883,9.482697,-1.117264,0
11.62738,9.278748,-1.203009,0
11.48456,9.164764,-1.296791,0
10.77881,8.601593,-1.319117,0
10.14227,8.093628,-1.337351,0
9.594299,7.656342,-1.356167,0
9.101746,7.263275,-1.373083,0
8.659546,6.9104,-1.388845,0
8.265198,6.595703,-1.404461,0
7.880188,6.288452,-1.414377,0
7.522461,6.003021,-1.422239,0
7.195129,5.741791,-1.429436,0
6.89447,5.501862,-1.436043,0
6.617249,5.28064,-1.442137,0
6.360901,5.07605,-1.447771,0
6.123047,4.886261,-1.452999,0
5.901794,4.709656,-1.457863,0
5.695374,4.544952,-1.4624,0
5.502319,4.3909,-1.466642,0
5.321472,4.246552,-1.470617,0
5.15155,4.110992,-1.474352,0
4.991638,3.983398,-1.477867,0
18.6712,14.85715,5.706507,0
18.6712,14.85715,5.521776,0
18.6712,14.85715,5.337669,0
18.6712,14.85715,5.154169,0
18.6712,14.85715,4.971247,0
18.6712,14.85715,4.788883,0
18.6712,14.85715,4.607058,0
18.6712,14.85715,4.425743,0
18.6712,14.85715,4.244923,0
18.6712,14.85715,4.064575,0
18.6712,14.85715,3.884676,0
18.6712,14.85715,3.705206,0
18.6712,14.85715,3.526148,0
18.6712,14.85715,3.347475,0
18.6712,14.85715,3.16917,0
18.6712,14.85715,2.991209,0
18.6712,14.85715,2.813583,0
18.6712,14.85715,2.636255,0
18.6712,14.85715,2.459219,0
18.6712,14.85715,2.282448,0
18.6712,14.85715,2.105932,0
18.6712,14.85715,1.92964,0
18.6712,14.85715,1.753551,0
18.6712,14.85715,1.577654,0
18.6712,14.85715,1.401934,0
18.6712,14.85715,1.226368,0
18.6712,14.85715,1.05093,0
18.6712,14.85715,0.8755989,0
18.6712,14.85715,0.7003727,0
18.6712,14.85715,0.5252171,0
18.6712,14.85715,0.3501053,0
18.6712,14.85715,0.1750431,0
18.6712,14.85715,-1.907349E-06,0
18.6712,14.85715,-0.175045,0
18.6712,14.85715,-0.3501072,0
18.6712,14.85715,-0.5252075,0
18.6712,14.85715,-0.7003651,0
18.63556,14.82877,-0.8739262,0
16.82996,13.39203,-0.9472885,0
15.34247,12.2084,-1.007727,0
14.0957,11.21634,-1.058386,0
12.76868,10.16031,-1.078913,0
11.88849,9.45993,-1.116535,0
11.60175,9.231812,-1.199024,0
11.49786,9.149139,-1.29685,0
10.79028,8.58609,-1.319052,0
10.15363,8.079468,-1.337351,0
9.605042,7.642975,-1.356171,0
9.111938,7.25058,-1.373085,0
8.66925,6.898346,-1.388857,0
8.274475,6.584198,-1.404474,0
7.888367,6.276947,-1.414267,0
7.530273,5.992035,-1.422134,0
7.202637,5.731354,-1.429333,0
6.901672,5.491852,-1.435946,0
6.624207,5.271057,-1.442041,0
6.367615,5.066864,-1.447681,0
6.129517,4.877411,-1.452911,0
5.90802,4.701141,-1.457779,0
5.701355,4.536713,-1.462318,0
5.508179,4.382996,-1.466562,0
5.327087,4.238922,-1.470541,0
5.157043,4.103577,-1.474279,0
4.996948,3.976227,-1.477797,0
18.63129,14.78296,5.687998,0
18.63129,14.78296,5.503862,0
18.63129,14.78296,5.320356,0
18.63129,14.78296,5.137449,0
18.63129,14.78296,4.95512,0
18.63129,14.78296,4.773348,0
18.63129,14.78296,4.592112,0
18.63129,14.78296,4.411386,0
18.63129,14.78296,4.231155,0
18.63129,14.78296,4.051394,0
18.63129,14.78296,3.87208,0
18.63129,14.78296,3.69319,0
18.63129,14.78296,3.514709,0
18.63129,14.78293,3.336617,0
18.63129,14.78296,3.158892,0
18.63129,14.78296,2.981508,0
18.63129,14.78296,2.804457,0
18.63129,14.78296,2.62771,0
18.63129,14.78296,2.451254,0
18.63129,14.78296,2.275047,0
18.63129,14.78296,2.099104,0
18.63129,14.78296,1.92338,0
18.63129,14.78296,1.747868,0
18.63129,14.78296,1.572536,0
18.63129,14.78296,1.397392,0
18.63129,14.78296,1.222389,0
18.63129,14.78296,1.04751,0
18.63129,14.78296,0.8727627,0
18.63129,14.78296,0.6980991,0
18.63129,14.78296,0.5235119,0
18.63129,14.78296,0.3489723,0
18.63129,14.78296,0.1744766,0
18.63129,14.78296,-1.907349E-06,0
18.63129,14.78293,-0.1744766,0
18.63129,14.78296,-0.3489723,0
18.63129,14.78296,-0.5235043,0
18.63129,14.78293,-0.6980915,0
18.63129,14.78296,-0.8727589,0
16.83997,13.36163,-0.9468021,0
15.35229,12.18124,-1.007254,0
14.10529,11.1918,-1.057928,0
12.7868,10.14566,-1.07925,0
11.89392,9.437225,-1.11581,0
11.57635,9.185211,-1.195068,0
11.51117,9.133514,-1.296909,0
10.8017,8.570587,-1.318987,0
10.16492,8.065308,-1.337355,0
9.615723,7.629547,-1.356173,0
9.12207,7.237885,-1.373089,0
8.678955,6.886292,-1.388868,0
8.283691,6.572693,-1.404484,0
7.896484,6.265472,-1.41416,0
7.538086,5.981079,-1.422029,0
7.210144,5.720856,-1.429232,0
6.908875,5.481842,-1.43585,0
6.631165,5.261475,-1.44195,0
6.374268,5.057648,-1.44759,0
6.135925,4.868561,-1.452826,0
5.914185,4.692596,-1.457695,0
5.707397,4.528503,-1.462236,0
5.513977,4.375061,-1.466486,0
5.332703,4.231232,-1.470465,0
5.162476,4.096161,-1.474203,0
5.002258,3.969055,-1.477724,0
18.59167,14.70926,5.669619,0
18.59167,14.70926,5.486078,0
18.59167,14.70923,5.303164,0
18.59167,14.70923,5.12085,0
18.59167,14.70926,4.939112,0
18.59167,14.70926,4.757927,0
18.59167,14.70926,4.577276,0
18.59167,14.70926,4.397135,0
18.59167,14.70926,4.217482,0
18.59167,14.70926,4.038301,0
18.59161,14.70926,3.859566,0
18.59167,14.70926,3.681257,0
18.59167,14.70926,3.503351,0
18.59167,14.70926,3.325838,0
18.59167,14.70926,3.148684,0
18.59167,14.70926,2.971876,0
18.59167,14.70926,2.795393,0
18.59167,14.70923,2.619215,0
18.59167,14.70923,2.443316,0
18.59167,14.70926,2.267706,0
18.59167,14.70926,2.092321,0
18.59167,14.70926,1.917158,0
18.59167,14.70926,1.742224,0
18.59167,14.70926,1.567457,0
18.59167,14.70926,1.39287,0
18.59167,14.70926,1.21843,0
18.59167,14.70926,1.044136,0
18.59167,14.70926,0.8699379,0
18.59167,14.70926,0.6958389,0
18.59167,14.70923,0.5218124,0
18.59167,14.70926,0.3478413,0
18.59167,14.70926,0.1739082,0
18.59161,14.70926,-1.907349E-06,0
18.59161,14.70926,-0.173914,0
18.59161,14.70923,-0.3478451,0
18.59161,14.70923,-0.5218124,0
18.59161,14.70923,-0.695837,0
18.59161,14.70923,-0.8699379,0
16.84991,13.33124,-0.9463139,0
15.36212,12.15408,-1.006781,0
14.11481,11.16727,-1.057472,0
12.80499,10.13095,-1.079586,0
11.89935,9.41449,-1.115089,0
11.55103,9.138885,-1.191139,0
11.52441,9.117828,-1.296968,0
10.81317,8.555084,-1.318924,0
10.17621,8.051117,-1.337358,0
9.626404,7.61615,-1.356176,0
9.132141,7.225128,-1.373091,0
8.68866,6.874237,-1.388882,0
8.292969,6.561188,-1.404497,0
7.904602,6.253937,-1.414051,0
7.545898,5.970123,-1.421926,0
7.21759,5.710388,-1.429132,0
6.916077,5.471832,-1.435753,0
6.638062,5.251862,-1.441856,0
6.38092,5.048431,-1.4475,0
6.142334,4.85968,-1.452738,0
5.92041,4.684082,-1.457611,0
5.713379,4.520294,-1.462156,0
5.519775,4.367126,-1.466406,0
5.338379,4.223602,-1.470388,0
5.167969,4.088745,-1.474131,0
5.007568,3.961884,-1.477652,0
18.55225,14.63602,5.651371,0
18.55225,14.63602,5.468422,0
18.55225,14.63602,5.286095,0
18.55225,14.63602,5.104368,0
18.55225,14.63602,4.923212,0
18.55225,14.63602,4.742613,0
18.55225,14.63602,4.562542,0
18.55225,14.63602,4.382982,0
18.55225,14.63602,4.203909,0
18.55225,14.63602,4.025305,0
18.55225,14.63602,3.847141,0
18.55225,14.63602,3.669409,0
18.55225,14.63602,3.492077,0
18.55225,14.63602,3.31513,0
18.55225,14.63602,3.138548,0
18.55225,14.63602,2.962311,0
18.55225,14.63602,2.786394,0
18.55225,14.63602,2.610785,0
18.55225,14.63602,2.435461,0
18.55225,14.63602,2.260397,0
18.55225,14.63602,2.085587,0
18.55225,14.63602,1.910992,0
18.55225,14.63602,1.736607,0
18.55225,14.63602,1.56242,0
18.55225,14.63602,1.388393,0
18.55225,14.63602,1.21452,0
18.55225,14.63602,1.040771,0
18.55225,14.63602,0.867136,0
18.55225,14.63602,0.693594,0
18.55225,14.63602,0.5201359,0
18.55225,14.63602,0.3467274,0
18.55225,14.63602,0.1733475,0
18.55225,14.63602,0,0
18.55225,14.63602,-0.1733532,0
18.55225,14.63602,-0.3467255,0
18.55225,14.63602,-0.5201321,0
18.55225,14.63602,-0.6935978,0
18.55225,14.63602,-0.8671379,0
16.85986,13.30087,-0.9458294,0
15.37183,12.12695,-1.006311,0
14.12433,11.14276,-1.057018,0
12.82312,10.11624,-1.079926,0
11.90479,9.391785,-1.114367,0
11.52594,9.092896,-1.187241,0
11.52594,9.092896,-1.295708,0
10.82458,8.539581,-1.318861,0
10.18744,8.036957,-1.337362,0
9.637024,7.602722,-1.35618,0
9.142273,7.212402,-1.373096,0
8.698303,6.862183,-1.388895,0
8.302185,6.549652,-1.404509,0
7.91272,6.242432,-1.413942,0
7.55365,5.959137,-1.421822,0
7.225098,5.699921,-1.429031,0
6.923218,5.461792,-1.435656,0
6.644958,5.242249,-1.441763,0
6.387573,5.039185,-1.447411,0
6.148743,4.8508,-1.452652,0
5.926636,4.675568,-1.457527,0
5.71936,4.512054,-1.462074,0
5.525574,4.359161,-1.466328,0
5.343994,4.215912,-1.470312,0
5.173401,4.081329,-1.474056,0
5.012878,3.954681,-1.477579,0
18.51312,14.56323,5.633251,0
18.51312,14.56326,5.450888,0
18.51312,14.56326,5.269146,0
18.51312,14.56323,5.087999,0
18.51312,14.56326,4.907427,0
18.51312,14.56323,4.727406,0
18.51312,14.56323,4.547911,0
18.51312,14.56323,4.368925,0
18.51312,14.56323,4.19043,0
18.51312,14.56326,4.012394,0
18.51312,14.56326,3.834805,0
18.51312,14.56323,3.65764,0
18.51312,14.56323,3.480879,0
18.51312,14.56326,3.304499,0
18.51312,14.56323,3.128483,0
18.51312,14.56326,2.95281,0
18.51312,14.56326,2.77746,0
18.51312,14.56323,2.602411,0
18.51312,14.56326,2.427649,0
18.51312,14.56326,2.253157,0
18.51312,14.56326,2.078894,0
18.51312,14.56323,1.904865,0
18.51312,14.56323,1.731037,0
18.51312,14.56326,1.5574,0
18.51312,14.56323,1.383944,0
18.51312,14.56323,1.210627,0
18.51312,14.56323,1.037434,0
18.51312,14.56323,0.8643551,0
18.51312,14.56323,0.6913738,0
18.51312,14.56323,0.518465,0
18.51312,14.56323,0.3456078,0
18.51312,14.56326,0.1728001,0
18.51312,14.56323,-1.907349E-06,0
18.51312,14.56323,-0.1727982,0
18.51312,14.56323,-0.3456116,0
18.51312,14.56323,-0.518465,0
18.51312,14.56323,-0.6913719,0
18.51312,14.56323,-0.8643551,0
16.86981,13.27054,-0.9453449,0
15.38159,12.09982,-1.005838,0
14.13379,11.11826,-1.056564,0
12.84125,10.10147,-1.080261,0
11.91022,9.36911,-1.113647,0
11.50098,9.04718,-1.183369,0
11.50098,9.04718,-1.291481,0
10.83594,8.524048,-1.318796,0
10.19867,8.022736,-1.337368,0
9.647644,7.589264,-1.356184,0
9.152405,7.199677,-1.3731,0
8.708008,6.850067,-1.388908,0
8.311401,6.538116,-1.404522,0
7.920837,6.230896,-1.413834,0
7.561401,5.948151,-1.421717,0
7.232544,5.689423,-1.428932,0
6.930359,5.451752,-1.43556,0
6.651855,5.232635,-1.441671,0
6.394226,5.029938,-1.447321,0
6.155151,4.841949,-1.452566,0
5.9328,4.666992,-1.457443,0
5.725342,4.503815,-1.461992,0
5.531372,4.351227,-1.466249,0
5.349548,4.208221,-1.470238,0
5.178833,4.073883,-1.473982,0
5.018127,3.947479,-1.477509,0
18.47424,14.49094,5.615255,0
18.47424,14.49094,5.433475,0
18.47424,14.49094,5.252314,0
18.47424,14.49094,5.071745,0
18.47424,14.49094,4.891748,0
18.47424,14.49094,4.712305,0
18.47424,14.49094,4.533384,0
18.47424,14.49094,4.354971,0
18.47424,14.49094,4.177042,0
18.47424,14.49094,3.999578,0
18.47424,14.49094,3.822557,0
18.47424,14.49094,3.645956,0
18.47424,14.49094,3.469761,0
18.47424,14.49094,3.293945,0
18.47424,14.49094,3.118492,0
18.47424,14.49094,2.943378,0
18.47424,14.49094,2.768587,0
18.47424,14.49094,2.594099,0
18.47424,14.49094,2.419893,0
18.47424,14.49094,2.245953,0
18.47424,14.49094,2.072252,0
18.47424,14.49094,1.898775,0
18.47424,14.49094,1.725508,0
18.47424,14.49094,1.552425,0
18.47424,14.49094,1.379519,0
18.47424,14.49094,1.206755,0
18.47424,14.49094,1.034126,0
18.47424,14.49094,0.8615932,0
18.47424,14.49094,0.6891727,0
18.47424,14.49094,0.5168076,0
18.47424,14.49094,0.3445053,0
18.47424,14.49094,0.172245,0
18.47424,14.49094,-1.907349E-06,0
18.47424,14.49094,-0.172245,0
18.47424,14.49094,-0.3445091,0
18.47424,14.49094,-0.5168076,0
18.47424,14.49094,-0.6891632,0
18.47424,14.49094,-0.8615952,0
16.8797,13.2402,-0.9448605,0
15.3913,12.07272,-1.005373,0
14.14325,11.09378,-1.056112,0
12.85938,10.0867,-1.080601,0
11.91559,9.346466,-1.11293,0
11.4762,9.00177,-1.179523,0
11.4762,9.00177,-1.287287,0
10.84735,8.508514,-1.318733,0
10.2099,8.008514,-1.337374,0
9.658264,7.575836,-1.356192,0
9.162476,7.18692,-1.373106,0
8.717651,6.837982,-1.388922,0
8.320618,6.52655,-1.404537,0
7.928955,6.21936,-1.413727,0
7.569153,5.937164,-1.421616,0
7.239929,5.678925,-1.428833,0
6.937561,5.441681,-1.435465,0
6.658691,5.222992,-1.441578,0
6.400818,5.020721,-1.447233,0
6.16156,4.833038,-1.452478,0
5.938965,4.658447,-1.457361,0
5.731323,4.495575,-1.461912,0
5.53717,4.343262,-1.466171,0
5.355164,4.200531,-1.47016,0
5.184265,4.066437,-1.473909,0
5.023376,3.940277,-1.477436,0
18.43561,14.4191,5.597383,0
18.43561,14.4191,5.416185,0
18.43561,14.4191,5.235598,0
18.43561,14.4191,5.055607,0
18.43561,14.4191,4.876183,0
18.43561,14.4191,4.697308,0
18.43561,14.4191,4.518957,0
18.43561,14.4191,4.341112,0
18.43561,14.4191,4.16375,0
18.43561,14.4191,3.986851,0
18.43561,14.4191,3.810392,0
18.43561,14.4191,3.634356,0
18.43561,14.4191,3.458719,0
18.43561,14.4191,3.283463,0
18.43561,14.4191,3.108564,0
18.43561,14.4191,2.934011,0
18.43561,14.4191,2.759775,0
18.43561,14.4191,2.585844,0
18.43561,14.4191,2.412191,0
18.43561,14.4191,2.238804,0
18.43561,14.4191,2.065657,0
18.43561,14.4191,1.892736,0
18.43561,14.4191,1.720026,0
18.43561,14.4191,1.547487,0
18.43561,14.4191,1.375128,0
18.43561,14.4191,1.202904,0
18.43561,14.4191,1.030823,0
18.43561,14.4191,0.8588505,0
18.43561,14.4191,0.6869774,0
18.43561,14.4191,0.5151634,0
18.43561,14.4191,0.3434029,0
18.43561,14.4191,0.1716919,0
18.43561,14.4191,-1.907349E-06,0
18.43561,14.4191,-0.1716976,0
18.43561,14.4191,-0.3434143,0
18.43561,14.4191,-0.5151653,0
18.43561,14.4191,-0.6869717,0
18.43561,14.4191,-0.8588524,0
16.88953,13.20987,-0.9443798,0
15.40094,12.04562,-1.004904,0
14.15265,11.06927,-1.05566,0
12.87744,10.07187,-1.080938,0
11.92096,9.323792,-1.112215,0
11.4516,8.956665,-1.175707,0
11.4516,8.956665,-1.283119,0
10.8587,8.49295,-1.31867,0
10.22113,7.994293,-1.337379,0
9.668884,7.562347,-1.356195,0
9.172485,7.174133,-1.37311,0
8.727234,6.825897,-1.388937,0
8.329773,6.514984,-1.404551,0
7.937012,6.207794,-1.413618,0
7.576904,5.926147,-1.421511,0
7.247375,5.668427,-1.428734,0
6.944641,5.431641,-1.435369,0
6.665588,5.213348,-1.441484,0
6.40741,5.011475,-1.447145,0
6.167969,4.824158,-1.452394,0
5.945129,4.649872,-1.457277,0
5.737305,4.487335,-1.461832,0
5.542908,4.335297,-1.466093,0
5.360779,4.192841,-1.470087,0
5.189636,4.059021,-1.473837,0
5.028625,3.933075,-1.477365,0
18.39722,14.34772,5.579638,0
18.39722,14.34772,5.399015,0
18.39722,14.34772,5.219004,0
18.39722,14.34772,5.039579,0
18.39722,14.34772,4.860725,0
18.39722,14.34772,4.682419,0
18.39722,14.34772,4.504631,0
18.39722,14.34772,4.327351,0
18.39722,14.34772,4.150547,0
18.39722,14.34772,3.974211,0
18.39722,14.34772,3.798311,0
18.39722,14.34772,3.622833,0
18.39722,14.34772,3.447756,0
18.39722,14.34772,3.273054,0
18.39722,14.34772,3.098711,0
18.39722,14.34772,2.924707,0
18.39722,14.34772,2.751026,0
18.39722,14.34772,2.577646,0
18.39722,14.34772,2.404545,0
18.39722,14.34772,2.231707,0
18.39722,14.34772,2.059111,0
18.39722,14.34772,1.886736,0
18.39722,14.34772,1.714563,0
18.39722,14.34772,1.542582,0
18.39722,14.34772,1.370766,0
18.39722,14.34772,1.199095,0
18.39722,14.34772,1.027559,0
18.39722,14.34772,0.8561287,0
18.39722,14.34772,0.6847973,0
18.39722,14.34772,0.5135307,0
18.39722,14.34772,0.3423214,0
18.39722,14.34772,0.1711521,0
18.39722,14.34772,-1.907349E-06,0
18.39722,14.34772,-0.1711521,0
18.39722,14.34769,-0.3423214,0
18.39722,14.34769,-0.5135307,0
18.39722,14.34769,-0.6847935,0
18.39722,14.34769,-0.8561306,0
16.89935,13.17957,-0.9438992,0
15.41064,12.01852,-1.004438,0
14.16205,11.04483,-1.05521,0
12.89557,10.05704,-1.081278,0
11.92633,9.301178,-1.1115,0
11.42712,8.911835,-1.171915,0
11.42712,8.911835,-1.278982,0
10.87,8.477386,-1.318609,0
10.23236,7.980072,-1.337385,0
9.679504,7.54892,-1.356203,0
9.182556,7.161346,-1.373117,0
8.736877,6.813751,-1.388952,0
8.338989,6.503448,-1.404566,0
7.945068,6.196259,-1.413509,0
7.584656,5.915131,-1.421408,0
7.254761,5.657898,-1.428637,0
6.951782,5.4216,-1.435274,0
6.672424,5.203705,-1.441393,0
6.414001,5.002228,-1.447056,0
6.174316,4.815247,-1.452307,0
5.951294,4.641327,-1.457193,0
5.743225,4.479065,-1.461752,0
5.548645,4.327332,-1.466017,0
5.366333,4.18515,-1.470011,0
5.195068,4.051544,-1.473763,0
5.033875,3.925873,-1.477295,0
18.35907,14.27679,5.562017,0
18.35907,14.27676,5.38196,0
18.35907,14.27679,5.202518,0
18.35907,14.27679,5.023663,0
18.35907,14.27676,4.845373,0
18.35907,14.27676,4.667629,0
18.35907,14.27676,4.490406,0
18.35907,14.27676,4.313683,0
18.35907,14.27676,4.137442,0
18.35907,14.27676,3.961657,0
18.35907,14.27679,3.786318,0
18.35907,14.27676,3.611391,0
18.35907,14.27676,3.436865,0
18.35907,14.27676,3.262716,0
18.35907,14.27676,3.088926,0
18.35907,14.27676,2.915474,0
18.35907,14.27676,2.74234,0
18.35907,14.27676,2.569506,0
18.35907,14.27679,2.396948,0
18.35907,14.27676,2.224659,0
18.35907,14.27676,2.052607,0
18.35907,14.27676,1.880779,0
18.35907,14.27676,1.70915,0
18.35907,14.27676,1.53771,0
18.35907,14.27676,1.366438,0
18.35907,14.27676,1.195305,0
18.35907,14.27679,1.024321,0
18.35907,14.27679,0.8534336,0
18.35907,14.27676,0.6826382,0
18.35907,14.27676,0.5119038,0
18.35907,14.27676,0.341238,0
18.35907,14.27676,0.1706104,0
18.35907,14.27676,-1.907349E-06,0
18.35907,14.27676,-0.1706142,0
18.35907,14.27676,-0.3412437,0
18.35907,14.27676,-0.5119076,0
18.35907,14.27676,-0.6826305,0
18.35907,14.27676,-0.853426,0
16.90918,13.14926,-0.9434185,0
15.42023,11.99142,-1.003975,0
14.17145,11.02032,-1.054762,0
12.91364,10.04214,-1.081617,0
11.9317,9.278595,-1.11079,0
11.40283,8.86731,-1.168154,0
11.40283,8.86731,-1.274876,0
10.88135,8.461792,-1.318546,0
10.24353,7.96579,-1.337393,0
9.690063,7.535431,-1.356211,0
9.192627,7.14856,-1.373123,0
8.74646,6.801636,-1.388968,0
8.348145,6.491852,-1.404579,0
7.953125,6.184692,-1.413404,0
7.592346,5.904114,-1.421307,0
7.262146,5.647369,-1.428535,0
6.958862,5.41153,-1.435179,0
6.67926,5.194061,-1.441303,0
6.420593,4.99295,-1.446966,0
6.180664,4.806366,-1.452223,0
5.957397,4.632721,-1.457111,0
5.749146,4.470795,-1.461674,0
5.554443,4.319366,-1.465939,0
5.371887,4.177429,-1.469934,0
5.2005,4.044098,-1.47369,0
5.039124,3.91864,-1.477224,0
18.32117,14.2063,5.544516,0
18.32117,14.2063,5.365028,0
18.32117,14.2063,5.18615,0
18.32117,14.2063,5.007858,0
18.32117,14.2063,4.830128,0
18.32117,14.2063,4.652941,0
18.32117,14.2063,4.476278,0
18.32117,14.2063,4.30011,0
18.32117,14.2063,4.124422,0
18.32117,14.2063,3.949194,0
18.32117,14.2063,3.774406,0
18.32117,14.2063,3.600027,0
18.32117,14.2063,3.42605,0
18.32117,14.2063,3.252451,0
18.32117,14.2063,3.079206,0
18.32117,14.2063,2.906298,0
18.32117,14.2063,2.733711,0
18.32117,14.2063,2.56142,0
18.32117,14.2063,2.389408,0
18.32117,14.2063,2.217657,0
18.32117,14.2063,2.046148,0
18.32117,14.2063,1.874861,0
18.32117,14.20627,1.703773,0
18.32117,14.2063,1.532871,0
18.32117,14.2063,1.362137,0
18.32117,14.2063,1.191547,0
18.32117,14.2063,1.021095,0
18.32117,14.2063,0.8507366,0
18.32117,14.2063,0.6804829,0
18.32117,14.2063,0.5103016,0
18.32117,14.2063,0.3401623,0
18.32117,14.2063,0.1700783,0
18.32117,14.2063,0,0
18.32111,14.2063,-0.1700764,0
18.32111,14.20627,-0.3401699,0
18.32111,14.20627,-0.5102978,0
18.32111,14.20627,-0.6804829,0
18.32111,14.2063,-0.8507423,0
16.91895,13.11902,-0.9429417,0
15.42987,11.96439,-1.00351,0
14.18079,10.99585,-1.054314,0
12.9317,10.02725,-1.081957,0
11.93701,9.256012,-1.110079,0
11.37866,8.823059,-1.164415,0
11.37866,8.823059,-1.270796,0
10.89264,8.446198,-1.318485,0
10.2547,7.951538,-1.3374,0
9.700623,7.521912,-1.356218,0
9.202637,7.135742,-1.373131,0
8.756042,6.78949,-1.388985,0
8.3573,6.480255,-1.404596,0
7.961121,6.173096,-1.413298,0
7.600037,5.893097,-1.421202,0
7.269531,5.636841,-1.428438,0
6.965942,5.401459,-1.435083,0
6.686096,5.184418,-1.441212,0
6.427185,4.983673,-1.446878,0
6.187012,4.797424,-1.452139,0
5.963562,4.624146,-1.457031,0
5.755066,4.462494,-1.461594,0
5.56012,4.311371,-1.46586,0
5.377441,4.169708,-1.46986,0
5.205872,4.036652,-1.473618,0
5.044373,3.911407,-1.477152,0
18.28345,14.13626,5.527136,0
18.28345,14.13626,5.348211,0
18.28345,14.13626,5.169893,0
18.28345,14.13626,4.992157,0
18.28345,14.13626,4.814987,0
18.28345,14.13626,4.638355,0
18.28345,14.13626,4.462244,0
18.28345,14.13626,4.286631,0
18.28345,14.13626,4.111496,0
18.28345,14.13626,3.936813,0
18.28345,14.13626,3.762571,0
18.28345,14.13626,3.588743,0
18.28345,14.13626,3.415312,0
18.28345,14.13626,3.242256,0
18.28345,14.13626,3.069555,0
18.28345,14.13626,2.89719,0
18.28345,14.13626,2.72514,0
18.28345,14.13626,2.553392,0
18.28345,14.13626,2.38192,0
18.28345,14.13626,2.210707,0
18.28345,14.13626,2.039734,0
18.28345,14.13626,1.868982,0
18.28345,14.13626,1.698433,0
18.28345,14.13626,1.528069,0
18.28345,14.13626,1.357868,0
18.28345,14.13626,1.187813,0
18.28345,14.13626,1.017893,0
18.28345,14.13626,0.8480778,0
18.28345,14.13626,0.6783504,0
18.28345,14.13626,0.5087051,0
18.28345,14.13626,0.339098,0
18.28345,14.13626,0.1695347,0
18.28345,14.13626,-1.907349E-06,0
18.28345,14.13623,-0.1695423,0
18.28345,14.13623,-0.3391037,0
18.28345,14.13623,-0.5086994,0
18.28345,14.13623,-0.6783504,0
18.28345,14.13623,-0.848074,0
16.92865,13.08875,-0.9424648,0
15.43939,11.93732,-1.003048,0
14.19012,10.97141,-1.053867,0
12.94977,10.01236,-1.082296,0
11.94226,9.233429,-1.109375,0
11.35504,8.779388,-1.16074,0
11.35504,8.779388,-1.266787,0
10.90393,8.430573,-1.318422,0
10.26587,7.937256,-1.337408,0
9.711182,7.508392,-1.356224,0
9.212646,7.122925,-1.373138,0
8.765625,6.777344,-1.389002,0
8.365784,6.468201,-1.404512,0
7.969177,6.16153,-1.413193,0
7.607727,5.88205,-1.421101,0
7.276917,5.626312,-1.428339,0
6.973022,5.391357,-1.43499,0
6.692871,5.174744,-1.441122,0
6.433777,4.974396,-1.446791,0
6.193359,4.788513,-1.452053,0
5.969666,4.61557,-1.456949,0
5.760986,4.454224,-1.461514,0
5.565857,4.303375,-1.465784,0
5.382996,4.161987,-1.469786,0
5.211243,4.029175,-1.473545,0
5.049561,3.904175,-1.477083,0
18.24603,14.06665,5.509878,0
18.24603,14.06662,5.331512,0
18.24603,14.06665,5.153749,0
18.24603,14.06665,4.97657,0
18.24603,14.06662,4.799952,0
18.24603,14.06662,4.623873,0
18.24603,14.06665,4.448311,0
18.24603,14.06665,4.273247,0
18.24603,14.06665,4.098654,0
18.24603,14.06665,3.924522,0
18.24603,14.06662,3.750822,0
18.24603,14.06662,3.577536,0
18.24603,14.06665,3.404648,0
18.24603,14.06665,3.23213,0
18.24603,14.06665,3.059971,0
18.24603,14.06665,2.888142,0
18.24603,14.06665,2.716631,0
18.24603,14.06662,2.54542,0
18.24603,14.06662,2.374481,0
18.24603,14.06665,2.2038,0
18.24603,14.06662,2.033363,0
18.24603,14.06665,1.863148,0
18.24603,14.06662,1.693129,0
18.24603,14.06662,1.523296,0
18.24603,14.06665,1.353626,0
18.24603,14.06665,1.184105,0
18.24603,14.06665,1.014709,0
18.24603,14.06665,0.8454227,0
18.24603,14.06665,0.6762352,0
18.24603,14.06665,0.5071106,0
18.24603,14.06665,0.3380432,0
18.24603,14.06665,0.1690121,0
18.24603,14.06665,-1.907349E-06,0
18.24603,14.06662,-0.1690121,0
18.24603,14.06662,-0.3380432,0
18.24603,14.06662,-0.5071106,0
18.24603,14.06662,-0.6762333,0
18.24603,14.06665,-0.8454247,0
16.93835,13.0585,-0.941988,0
15.44891,11.91025,-1.002584,0
14.1994,10.94693,-1.053421,0
12.96777,9.997406,-1.082636,0
11.94757,9.210846,-1.108667,0
11.33643,8.739716,-1.157589,0
11.33167,8.736053,-1.262815,0
10.91516,8.414948,-1.318363,0
10.27698,7.922974,-1.337418,0
9.721741,7.494904,-1.356234,0
9.222595,7.110107,-1.373146,0
8.775208,6.765167,-1.389019,0
8.374207,6.455994,-1.404402,0
7.977173,6.149933,-1.413088,0
7.615356,5.871002,-1.421,0
7.284241,5.615753,-1.428242,0
6.980103,5.381256,-1.434896,0
6.699707,5.16507,-1.441031,0
6.440308,4.965118,-1.446705,0
6.199646,4.779572,-1.451969,0
5.975769,4.606964,-1.456867,0
5.766907,4.445953,-1.461435,0
5.571594,4.29538,-1.465708,0
5.38855,4.154266,-1.469713,0
5.216614,4.021698,-1.473473,0
5.054749,3.896942,-1.477013,0
18.2088,13.99747,5.492735,0
18.2088,13.99747,5.314924,0
18.2088,13.99747,5.137714,0
18.2088,13.99747,4.96109,0
18.2088,13.99747,4.785021,0
18.2088,13.99747,4.609488,0
18.2088,13.99747,4.434471,0
18.2088,13.99747,4.259949,0
18.2088,13.99747,4.085903,0
18.20886,13.99747,3.912312,0
18.2088,13.99747,3.739155,0
18.2088,13.99747,3.566408,0
18.2088,13.99747,3.394053,0
18.2088,13.99747,3.222073,0
18.2088,13.99747,3.050447,0
18.2088,13.99747,2.879158,0
18.2088,13.99747,2.708181,0
18.2088,13.99747,2.537498,0
18.2088,13.99747,2.367096,0
18.2088,13.99747,2.196945,0
18.2088,13.99747,2.027039,0
18.2088,13.99747,1.857349,0
18.2088,13.99747,1.68786,0
18.2088,13.99747,1.518557,0
18.2088,13.99747,1.349415,0
18.2088,13.99747,1.18042,0
18.2088,13.99747,1.011551,0
18.2088,13.99747,0.8427963,0
18.2088,13.99747,0.6741238,0
18.2088,13.99747,0.5055332,0
18.2088,13.99747,0.3369865,0
18.2088,13.99747,0.1684856,0
18.2088,13.99747,0,0
18.2088,13.99747,-0.1684875,0
18.2088,13.99747,-0.3369923,0
18.2088,13.99747,-0.5055332,0
18.2088,13.99747,-0.6741276,0
18.2088,13.99747,-0.8427944,0
16.94806,13.02829,-0.941515,0
15.45844,11.88321,-1.002125,0
14.20868,10.92249,-1.052977,0
12.98578,9.982422,-1.082975,0
11.95282,9.188354,-1.107964,0
11.34662,8.722351,-1.157385,0
11.30841,8.692993,-1.258873,0
10.92639,8.399323,-1.318304,0
10.28815,7.908661,-1.337427,0
9.732239,7.481354,-1.356241,0
9.232605,7.09726,-1.373156,0
8.784729,6.753021,-1.389036,0
8.382507,6.443817,-1.404289,0
7.985107,6.138336,-1.412979,0
7.622986,5.859955,-1.420898,0
7.291626,5.605194,-1.428144,0
6.987183,5.371155,-1.434803,0
6.706482,5.155396,-1.440941,0
6.446838,4.955811,-1.446617,0
6.205994,4.77063,-1.451883,0
5.981873,4.598358,-1.456785,0
5.772766,4.437653,-1.461355,0
5.577271,4.287354,-1.465631,0
5.394043,4.146515,-1.469637,0
5.221924,4.014191,-1.473402,0
5.059998,3.889709,-1.476942,0
18.17188,13.92871,5.475708,0
18.17188,13.92871,5.298449,0
18.17188,13.92871,5.12179,0
18.17188,13.92871,4.945707,0
18.17188,13.92871,4.770185,0
18.17188,13.92871,4.5952,0
18.17188,13.92871,4.420725,0
18.17188,13.92871,4.246746,0
18.17188,13.92871,4.073238,0
18.17188,13.92871,3.900187,0
18.17188,13.92871,3.727564,0
18.17188,13.92871,3.555351,0
18.17188,13.92871,3.383535,0
18.17188,13.92871,3.212086,0
18.17188,13.92871,3.040993,0
18.17188,13.92871,2.870232,0
18.17188,13.92871,2.699785,0
18.17188,13.92871,2.529631,0
18.17188,13.92871,2.359756,0
18.17188,13.92874,2.190138,0
18.17188,13.92874,2.020754,0
18.17188,13.92871,1.851591,0
18.17188,13.92871,1.682629,0
18.17188,13.92871,1.513851,0
18.17188,13.92871,1.345234,0
18.17188,13.92871,1.176762,0
18.17188,13.92871,1.008415,0
18.17188,13.92871,0.8401814,0
18.17188,13.92871,0.6720352,0
18.17188,13.92871,0.5039635,0
18.17188,13.92871,0.3359489,0
18.17188,13.92871,0.167963,0
18.17188,13.92871,-1.907349E-06,0
18.17188,13.92871,-0.1679649,0
18.17181,13.92871,-0.335947,0
18.17181,13.92871,-0.5039654,0
18.17181,13.92871,-0.6720371,0
18.17181,13.92871,-0.8401833,0
16.9577,12.99808,-0.9410419,0
15.46796,11.85617,-1.001665,0
14.21796,10.89804,-1.052534,0
13.00385,9.967438,-1.083315,0
11.95807,9.165863,-1.107262,0
11.35529,8.703796,-1.157028,0
11.28534,8.650177,-1.254955,0
10.93762,8.383698,-1.318241,0
10.29926,7.894348,-1.337439,0
9.742737,7.467804,-1.356253,0
9.242554,7.084412,-1.373163,0
8.794312,6.740814,-1.389053,0
8.390869,6.43161,-1.404182,0
7.993103,6.126709,-1.412874,0
7.630615,5.848877,-1.420797,0
7.29895,5.594635,-1.428047,0
6.994202,5.361053,-1.43471,0
6.713257,5.145721,-1.440849,0
6.453369,4.946503,-1.446529,0
6.21228,4.761688,-1.451799,0
5.987915,4.589752,-1.456703,0
5.778687,4.429352,-1.461277,0
5.582947,4.279358,-1.465555,0
5.399597,4.138763,-1.469564,0
5.227295,4.006744,-1.47333,0
5.065186,3.882446,-1.476873,0
18.13513,13.86038,5.458799,0
18.13513,13.86038,5.282085,0
18.13513,13.86038,5.105972,0
18.13513,13.86038,4.930435,0
18.13513,13.86038,4.755453,0
18.13513,13.86038,4.581009,0
18.13513,13.86038,4.407074,0
18.13513,13.86038,4.233633,0
18.13513,13.86038,4.060661,0
18.13513,13.86038,3.888142,0
18.13513,13.86038,3.716051,0
18.13513,13.86038,3.544371,0
18.13513,13.86038,3.373083,0
18.13513,13.86038,3.202169,0
18.13513,13.86038,3.031605,0
18.13513,13.86038,2.86137,0
18.13513,13.86038,2.691448,0
18.13513,13.86038,2.521822,0
18.13513,13.86038,2.35247,0
18.13513,13.86038,2.183374,0
18.13513,13.86038,2.014515,0
18.13513,13.86038,1.845873,0
18.13513,13.86038,1.677435,0
18.13513,13.86038,1.509176,0
18.13513,13.86038,1.341078,0
18.13513,13.86038,1.173128,0
18.13513,13.86038,1.005302,0
18.13513,13.86038,0.8375874,0
18.13513,13.86038,0.6699619,0
18.13513,13.86038,0.5024071,0
18.13513,13.86038,0.3349094,0
18.13513,13.86038,0.1674404,0
18.13513,13.86038,0,0
18.13513,13.86038,-0.1674461,0
18.13507,13.86038,-0.3349113,0
18.13507,13.86038,-0.502409,0
18.13507,13.86038,-0.6699638,0
18.13507,13.86038,-0.8375893,0
16.96735,12.96786,-0.9405708,0
15.47742,11.82913,-1.001207,0
14.22717,10.87363,-1.052092,0
13.02185,9.952362,-1.083656,0
11.96326,9.143341,-1.10656,0
11.3606,8.682709,-1.156334,0
11.26239,8.607666,-1.251068,0
10.94879,8.368011,-1.318184,0
10.3103,7.880035,-1.337448,0
9.753235,7.454254,-1.35626,0
9.252502,7.071564,-1.373173,0
8.803833,6.728638,-1.389076,0
8.39917,6.419373,-1.404072,0
8.001038,6.115082,-1.412769,0
7.638245,5.837799,-1.420696,0
7.306213,5.584045,-1.427952,0
7.001221,5.350922,-1.434616,0
6.720032,5.136017,-1.44076,0
6.4599,4.937195,-1.446444,0
6.218567,4.752747,-1.451717,0
5.994019,4.581116,-1.456621,0
5.784546,4.421051,-1.461199,0
5.588684,4.271332,-1.465479,0
5.40509,4.131012,-1.469488,0
5.232605,3.999237,-1.473257,0
5.070313,3.875183,-1.476803,0
18.09857,13.79251,5.442005,0
18.09857,13.79251,5.265837,0
18.09857,13.79251,5.090263,0
18.09857,13.79251,4.915268,0
18.09857,13.79251,4.740828,0
18.09857,13.79251,4.566916,0
18.09857,13.79251,4.393515,0
18.09857,13.79251,4.22061,0
18.09857,13.79251,4.04817,0
18.09857,13.79251,3.876181,0
18.09857,13.79251,3.704618,0
18.09857,13.79251,3.53347,0
18.09857,13.79251,3.362707,0
18.09857,13.79251,3.19232,0
18.09857,13.79251,3.022276,0
18.09857,13.79251,2.852568,0
18.09857,13.79251,2.683168,0
18.09857,13.79251,2.514063,0
18.09857,13.79251,2.345234,0
18.09857,13.79251,2.176655,0
18.09857,13.79251,2.008316,0
18.09857,13.79251,1.840195,0
18.09857,13.79251,1.672274,0
18.09857,13.79251,1.504528,0
18.09857,13.79251,1.33695,0
18.09857,13.79251,1.169519,0
18.09857,13.79251,1.002211,0
18.09857,13.79251,0.8350105,0
18.09857,13.79251,0.6679001,0
18.09857,13.79251,0.5008602,0
18.09857,13.79251,0.3338757,0
18.09857,13.79251,0.1669292,0
18.09857,13.79251,0,0
18.09857,13.79251,-0.1669312,0
18.09857,13.79251,-0.3338795,0
18.09857,13.79251,-0.500864,0
18.09857,13.79248,-0.667902,0
18.09857,13.79248,-0.8350124,0
16.97693,12.93771,-0.9400997,0
15.48682,11.80215,-1.000751,0
14.23639,10.84918,-1.051649,0
13.03979,9.937317,-1.083998,0
11.96844,9.12088,-1.105864,0
11.36591,8.661652,-1.155642,0
11.23956,8.565399,-1.247206,0
10.96002,8.352356,-1.318125,0
10.32141,7.865692,-1.337458,0
9.763733,7.440704,-1.356272,0
9.262451,7.058685,-1.373182,0
8.813354,6.716431,-1.389091,0
8.407471,6.407135,-1.403963,0
8.008972,6.103455,-1.412666,0
7.645874,5.826721,-1.420597,0
7.313538,5.573456,-1.427855,0
7.00824,5.34079,-1.434523,0
6.726746,5.126312,-1.440672,0
6.46637,4.927887,-1.446356,0
6.224792,4.743774,-1.451632,0
6.000061,4.572479,-1.456541,0
5.790405,4.41272,-1.461121,0
5.594299,4.263306,-1.465403,0
5.410583,4.12326,-1.469416,0
5.237976,3.99173,-1.473185,0
5.0755,3.86792,-1.476734,0
18.06232,13.72501,5.425314,0
18.06232,13.72501,5.249695,0
18.06232,13.72501,5.074669,0
18.06232,13.72501,4.900202,0
18.06232,13.72501,4.726309,0
18.06232,13.72501,4.552923,0
18.06232,13.72501,4.380056,0
18.06232,13.72501,4.207674,0
18.06232,13.72501,4.035765,0
18.06232,13.72501,3.864317,0
18.06232,13.72501,3.69327,0
18.06232,13.72501,3.522646,0
18.06232,13.72501,3.3524,0
18.06232,13.72501,3.182537,0
18.06232,13.72501,3.013018,0
18.06232,13.72501,2.843826,0
18.06232,13.72501,2.674948,0
18.06232,13.72501,2.506376,0
18.06232,13.72501,2.338045,0
18.06232,13.72501,2.169996,0
18.06232,13.72501,2.002167,0
18.06232,13.72501,1.834566,0
18.06232,13.72501,1.667164,0
18.06232,13.72501,1.499939,0
18.06232,13.72501,1.332855,0
18.06232,13.72501,1.165947,0
18.06232,13.72501,0.9991455,0
18.06232,13.72501,0.8324776,0
18.06232,13.72501,0.6658535,0
18.06232,13.72501,0.4993248,0
18.06232,13.72501,0.3328667,0
18.06232,13.72501,0.1664295,0
18.06232,13.72501,-1.907349E-06,0
18.06232,13.72501,-0.1664181,0
18.06232,13.72501,-0.3328552,0
18.06226,13.72501,-0.4993305,0
18.06226,13.72501,-0.6658554,0
18.06226,13.72501,-0.8324547,0
16.98651,12.90753,-0.9396305,0
15.49628,11.77515,-1.000296,0
14.24554,10.82477,-1.05121,0
13.0578,9.922211,-1.084341,0
11.97363,9.098419,-1.105167,0
11.37115,8.640594,-1.154949,0
11.21692,8.523407,-1.243368,0
10.97119,8.33667,-1.318064,0
10.33246,7.851349,-1.337469,0
9.77417,7.427094,-1.356283,0
9.272339,7.045776,-1.373194,0
8.822815,6.704193,-1.389114,0
8.415771,6.394897,-1.403854,0
8.016907,6.091827,-1.412561,0
7.653442,5.815643,-1.420496,0
7.320801,5.562866,-1.427759,0
7.015198,5.330658,-1.434431,0
6.733459,5.116577,-1.44058,0
6.472839,4.918549,-1.44627,0
6.231079,4.734802,-1.45155,0
6.006104,4.563873,-1.456461,0
5.796204,4.404388,-1.461042,0
5.599976,4.255249,-1.465326,0
5.416016,4.115509,-1.469343,0
5.243286,3.984222,-1.473116,0
5.080688,3.860657,-1.476667,0
18.02625,13.65793,5.408758,0
18.02625,13.65793,5.233664,0
18.02625,13.65793,5.059172,0
18.02625,13.65796,4.885248,0
18.02625,13.65793,4.711878,0
18.02625,13.65793,4.539019,0
18.02625,13.65793,4.36669,0
18.02625,13.65793,4.194828,0
18.02625,13.65793,4.023443,0
18.02625,13.65793,3.85251,0
18.02625,13.65793,3.682001,0
18.02625,13.65793,3.511889,0
18.02625,13.65793,3.342175,0
18.02625,13.65793,3.17281,0
18.02625,13.65793,3.003813,0
18.02625,13.65793,2.835146,0
18.02625,13.65793,2.666769,0
18.02625,13.65793,2.498716,0
18.02625,13.65793,2.330914,0
18.02625,13.65793,2.163355,0
18.02625,13.65796,1.996056,0
18.02625,13.65793,1.828959,0
18.02625,13.65793,1.662066,0
18.02625,13.65793,1.495344,0
18.02625,13.65793,1.3288,0
18.02625,13.65796,1.162378,0
18.02625,13.65793,0.9960957,0
18.02625,13.65793,0.8299274,0
18.02618,13.65793,0.6638184,0
18.02625,13.65793,0.4978123,0
18.02625,13.65793,0.3318405,0
18.02625,13.65793,0.1659164,0
18.02625,13.65793,-1.907349E-06,0
18.02618,13.65793,-0.1659107,0
18.02618,13.65793,-0.3318386,0
18.02618,13.65793,-0.4978046,0
18.02618,13.65793,-0.6638222,0
18.02618,13.65793,-0.8299103,0
16.99603,12.87741,-0.9391632,0
15.50562,11.74817,-0.9998417,0
14.25464,10.80032,-1.05077,0
13.07574,9.907104,-1.084681,0
11.97882,9.075989,-1.104473,0
11.3764,8.619598,-1.154263,0
11.1944,8.481659,-1.239555,0
10.9823,8.320984,-1.318007,0
10.34351,7.836975,-1.337482,0
9.784607,7.413513,-1.356295,0
9.282227,7.032898,-1.373205,0
8.832336,6.691986,-1.389133,0
8.424011,6.38266,-1.403746,0
8.024841,6.08017,-1.412457,0
7.661011,5.804535,-1.420397,0
7.328064,5.552277,-1.427664,0
7.022217,5.320526,-1.434338,0
6.740234,5.106842,-1.440491,0
6.47937,4.90921,-1.446184,0
6.237305,4.725861,-1.451468,0
6.012146,4.555206,-1.456381,0
5.802063,4.396057,-1.460964,0
5.605652,4.247223,-1.465254,0
5.421509,4.107727,-1.469271,0
5.248596,3.976715,-1.473043,0
5.085815,3.853363,-1.476595,0
17.99036,13.59128,5.392302,0
17.99036,13.59128,5.217733,0
17.99036,13.59128,5.043772,0
17.99036,13.59128,4.870373,0
17.99036,13.59128,4.697538,0
17.99036,13.59128,4.525213,0
17.99036,13.59128,4.353395,0
17.99036,13.59128,4.18206,0
17.99036,13.59128,4.011198,0
17.99036,13.59128,3.84078,0
17.99036,13.59128,3.670797,0
17.99036,13.59128,3.5012,0
17.99036,13.59128,3.332014,0
17.99036,13.59128,3.163162,0
17.99036,13.59128,2.994677,0
17.99036,13.59128,2.826513,0
17.99036,13.59128,2.658674,0
17.99036,13.59128,2.491114,0
17.99036,13.59128,2.323826,0
17.99036,13.59128,2.156782,0
17.99036,13.59128,1.989988,0
17.99036,13.59128,1.823389,0
17.99036,13.59128,1.657013,0
17.99036,13.59128,1.490786,0
17.99036,13.59128,1.324741,0
17.99036,13.59128,1.158848,0
17.99036,13.59128,0.9930668,0
17.99036,13.59128,0.8273945,0
17.99036,13.59128,0.6618061,0
17.99036,13.59128,0.4963017,0
17.99036,13.59128,0.3308392,0
17.99036,13.59128,0.1654224,0
17.99036,13.59128,-1.907349E-06,0
17.99036,13.59128,-0.1654072,0
17.99036,13.59128,-0.3308296,0
17.99036,13.59128,-0.4962902,0
17.99036,13.59128,-0.6618023,0
17.99036,13.59128,-0.8273849,0
17.00555,12.84726,-0.9386959,0
15.51495,11.72119,-0.9993877,0
14.26379,10.77594,-1.050331,0
13.09369,9.891937,-1.085024,0
11.98395,9.053589,-1.103783,0
11.38165,8.598572,-1.153576,0
11.172,8.440155,-1.235773,0
10.99341,8.305267,-1.317949,0
10.35455,7.822601,-1.337496,0
9.795044,7.399933,-1.356306,0
9.292114,7.019989,-1.373217,0
8.841797,6.679749,-1.389154,0
8.432312,6.370392,-1.403637,0
8.032715,6.068512,-1.412354,0
7.668579,5.793427,-1.420298,0
7.335327,5.541656,-1.427567,0
7.029175,5.310394,-1.434246,0
6.746887,5.097137,-1.440403,0
6.485779,4.899872,-1.4461,0
6.243591,4.716858,-1.451384,0
6.018188,4.54657,-1.456301,0
5.807922,4.387726,-1.460888,0
5.611267,4.239166,-1.465178,0
5.426941,4.099945,-1.469198,0
5.253845,3.969177,-1.472975,0
5.090942,3.8461,-1.476528,0
17.95471,13.52502,5.375946,0
17.95471,13.52502,5.201921,0
17.95471,13.52502,5.028492,0
17.95471,13.52502,4.855625,0
17.95471,13.52502,4.68329,0
17.95471,13.52502,4.511486,0
17.95471,13.52502,4.340187,0
17.95471,13.52502,4.169388,0
17.95471,13.52502,3.999044,0
17.95471,13.52502,3.829145,0
17.95471,13.52502,3.65966,0
17.95471,13.52502,3.490583,0
17.95471,13.52502,3.321894,0
17.95471,13.52502,3.153574,0
17.95471,13.52502,2.985598,0
17.95471,13.52502,2.817949,0
17.95471,13.52502,2.650606,0
17.95471,13.52502,2.483553,0
17.95471,13.52502,2.316771,0
17.95471,13.52502,2.150244,0
17.95471,13.52502,1.983938,0
17.95471,13.52502,1.817863,0
17.95471,13.52502,1.651999,0
17.95471,13.52502,1.486273,0
17.95471,13.52502,1.320736,0
17.95471,13.52502,1.155331,0
17.95471,13.52502,0.9900608,0
17.95471,13.52499,0.8248787,0
17.95471,13.52502,0.6597881,0
17.95471,13.52502,0.494791,0
17.95471,13.52502,0.3298321,0
17.95471,13.52502,0.1649132,0
17.95471,13.52502,-3.814697E-06,0
17.95471,13.52502,-0.1649055,0
17.95471,13.52499,-0.3298283,0
17.95471,13.52499,-0.4947834,0
17.95471,13.52499,-0.6597958,0
17.95471,13.52499,-0.8248768,0
17.01501,12.81714,-0.9382305,0
15.52429,11.69424,-0.9989357,0
14.27289,10.75153,-1.049894,0
13.11163,9.87677,-1.085365,0
11.98907,9.031189,-1.10309,0
11.3869,8.577576,-1.152889,0
11.14972,8.398926,-1.232014,0
11.00452,8.289551,-1.31789,0
10.36554,7.808197,-1.337507,0
9.805481,7.386292,-1.356319,0
9.302002,7.00705,-1.373228,0
8.851257,6.667511,-1.389177,0
8.440552,6.358124,-1.403528,0
8.040588,6.056854,-1.412251,0
7.676147,5.782318,-1.420198,0
7.34259,5.531036,-1.427471,0
7.036133,5.300201,-1.434153,0
6.753601,5.087372,-1.440315,0
6.492249,4.890533,-1.446014,0
6.249817,4.707855,-1.451302,0
6.02417,4.537933,-1.456221,0
5.813721,4.379364,-1.46081,0
5.616882,4.23111,-1.465101,0
5.432434,4.092163,-1.469126,0
5.259155,3.961639,-1.472902,0
5.096069,3.838776,-1.476458,0
17.91931,13.45917,5.359718,0
17.91931,13.45917,5.186209,0
17.91931,13.45914,5.013287,0
17.91931,13.45917,4.840952,0
17.91931,13.45914,4.669138,0
17.91931,13.45914,4.497854,0
17.91931,13.45917,4.327078,0
17.91931,13.45917,4.156797,0
17.91931,13.45917,3.986965,0
17.91931,13.45914,3.81757,0
17.91931,13.45917,3.648607,0
17.91931,13.45914,3.48004,0
17.91931,13.45914,3.311867,0
17.91931,13.45917,3.144056,0
17.91931,13.45917,2.976572,0
17.91931,13.45917,2.809441,0
17.91931,13.45917,2.642603,0
17.91931,13.45917,2.476061,0
17.91931,13.45917,2.309778,0
17.91931,13.45917,2.143749,0
17.91931,13.45917,1.977957,0
17.91931,13.45917,1.812376,0
17.91931,13.45917,1.646982,0
17.91931,13.45917,1.481783,0
17.91931,13.45917,1.316734,0
17.91931,13.45917,1.151838,0
17.91931,13.45917,0.9870701,0
17.91931,13.45917,0.8223991,0
17.91931,13.45917,0.6578007,0
17.91931,13.45917,0.4932823,0
17.91931,13.45917,0.328825,0
17.91931,13.45917,0.1644211,0
17.91931,13.45917,-1.907349E-06,0
17.91931,13.45914,-0.1644077,0
17.91931,13.45917,-0.3288326,0
17.91931,13.45917,-0.4932899,0
17.91931,13.45914,-0.6578026,0
17.91931,13.45914,-0.8223839,0
17.02448,12.78705,-0.9377651,0
15.53357,11.66727,-0.9984856,0
14.28192,10.72714,-1.049459,0
13.12958,9.861572,-1.085709,0
11.9942,9.00882,-1.102404,0
11.39209,8.55658,-1.152205,0
11.12762,8.357941,-1.228277,0
11.01563,8.273804,-1.317833,0
10.37653,7.793793,-1.337521,0
9.815857,7.37265,-1.356333,0
9.31189,6.994141,-1.37324,0
8.860657,6.655243,-1.389198,0
8.44873,6.345856,-1.403421,0
8.048462,6.045166,-1.412148,0
7.683655,5.771179,-1.420099,0
7.349792,5.520416,-1.427376,0
7.043091,5.290039,-1.434063,0
6.760315,5.077637,-1.440226,0
6.498718,4.881165,-1.445929,0
6.255981,4.698883,-1.45122,0
6.030151,4.529266,-1.456142,0
5.819519,4.371002,-1.460733,0
5.622498,4.223053,-1.465029,0
5.437866,4.084381,-1.469053,0
5.264404,3.954102,-1.472834,0
5.101196,3.831512,-1.476393,0
17.88409,13.39371,5.343588,0
17.88409,13.39371,5.170605,0
17.88409,13.39371,4.998217,0
17.88409,13.39371,4.826368,0
17.88409,13.39371,4.655096,0
17.88409,13.39371,4.484327,0
17.88409,13.39371,4.31407,0
17.88409,13.39371,4.144281,0
17.88409,13.39371,3.974962,0
17.88409,13.39371,3.806078,0
17.88409,13.39371,3.637625,0
17.88409,13.39371,3.469572,0
17.88409,13.39371,3.301893,0
17.88409,13.39371,3.134575,0
17.88409,13.39371,2.967615,0
17.88409,13.39371,2.80097,0
17.88409,13.39371,2.634651,0
17.88409,13.39371,2.468599,0
17.88409,13.39371,2.30282,0
17.88409,13.39371,2.137304,0
17.88409,13.39371,1.971994,0
17.88409,13.39371,1.806921,0
17.88409,13.39371,1.642038,0
17.88409,13.39371,1.47732,0
17.88409,13.39371,1.312773,0
17.88409,13.39371,1.148378,0
17.88409,13.39371,0.9840965,0
17.88409,13.39371,0.819912,0
17.88409,13.39371,0.6558266,0
17.88409,13.39371,0.4918156,0
17.88409,13.39371,0.3278484,0
17.88409,13.39371,0.1639252,0
17.88409,13.39371,-3.814697E-06,0
17.88409,13.39371,-0.1639118,0
17.88409,13.39371,-0.3278408,0
17.88409,13.39368,-0.4918041,0
17.88409,13.39371,-0.6558228,0
17.88409,13.39371,-0.81991,0
17.03387,12.75696,-0.9373035,0
15.54285,11.64029,-0.9980335,0
14.29102,10.70276,-1.049025,0
13.14746,9.846344,-1.086052,0
11.99927,8.98645,-1.101715,0
11.39728,8.535614,-1.151522,0
11.10565,8.3172,-1.224567,0
11.02667,8.258057,-1.317776,0
10.38751,7.779388,-1.337534,0
9.826233,7.359039,-1.356346,0
9.321716,6.981171,-1.373255,0
8.870117,6.642975,-1.389221,0
8.45697,6.333557,-1.403315,0
8.056274,6.033478,-1.412045,0
7.691162,5.76004,-1.42,0
7.356995,5.509796,-1.427282,0
7.049988,5.279877,-1.433969,0
6.766968,5.067902,-1.440138,0
6.505127,4.871796,-1.445845,0
6.262207,4.68985,-1.451136,0
6.036194,4.520599,-1.45606,0
5.825317,4.362671,-1.460657,0
5.628113,4.214996,-1.464952,0
5.443298,4.076569,-1.468981,0
5.269714,3.946564,-1.472763,0
5.106323,3.824188,-1.476324,0
17.84912,13.32864,5.327555,0
17.84912,13.32864,5.155096,0
17.84912,13.32864,4.983225,0
17.84912,13.32864,4.811907,0
17.84912,13.32864,4.64113,0
17.84912,13.32864,4.470881,0
17.84912,13.32864,4.30113,0
17.84912,13.32864,4.131853,0
17.84912,13.32864,3.963047,0
17.84912,13.32864,3.794672,0
17.84912,13.32864,3.626722,0
17.84912,13.32864,3.459164,0
17.84912,13.32864,3.291992,0
17.84912,13.32864,3.125189,0
17.84912,13.32864,2.958731,0
17.84912,13.32864,2.792585,0
17.84912,13.32864,2.626743,0
17.84912,13.32864,2.461195,0
17.84912,13.32864,2.295918,0
17.84912,13.32864,2.130884,0
17.84912,13.32864,1.966089,0
17.84912,13.32864,1.801502,0
17.84912,13.32864,1.637117,0
17.84912,13.32864,1.472902,0
17.84912,13.32864,1.308836,0
17.84912,13.32864,1.144918,0
17.84912,13.32864,0.981142,0
17.84912,13.32864,0.8174591,0
17.84912,13.32864,0.6538677,0
17.84912,13.32864,0.4903488,0
17.84912,13.32864,0.3268528,0
17.84912,13.32864,0.1634293,0
17.84912,13.32864,-3.814697E-06,0
17.84912,13.32864,-0.1634216,0
17.84912,13.32861,-0.3268585,0
17.84906,13.32861,-0.4903278,0
17.84906,13.32864,-0.6538582,0
17.84906,13.32861,-0.8174515,0
17.04327,12.7269,-0.936842,0
15.55212,11.61337,-0.9975853,0
14.29999,10.67838,-1.048592,0
13.16534,9.831085,-1.086395,0
12.00433,8.964111,-1.10103,0
11.40247,8.514679,-1.150843,0
11.0838,8.276703,-1.220882,0
11.03772,8.24231,-1.31772,0
10.3985,7.764984,-1.337549,0
9.836609,7.345367,-1.356359,0
9.331543,6.968231,-1.373268,0
8.879517,6.630707,-1.389246,0
8.465149,6.321259,-1.403208,0
8.064148,6.02182,-1.411943,0
7.698669,5.748901,-1.419903,0
7.364197,5.499146,-1.427187,0
7.056946,5.269684,-1.43388,0
6.773621,5.058136,-1.44005,0
6.511536,4.862427,-1.445759,0
6.268372,4.680847,-1.451056,0
6.042114,4.511902,-1.455982,0
5.831055,4.354309,-1.460581,0
5.633728,4.206909,-1.46488,0
5.44873,4.068756,-1.468908,0
5.274963,3.938995,-1.472692,0
5.111389,3.816895,-1.476255,0
17.81433,13.26395,5.311647,0
17.81433,13.26395,5.139696,0
17.81433,13.26395,4.968336,0
17.81433,13.26395,4.797537,0
17.81433,13.26395,4.627274,0
17.81433,13.26395,4.457521,0
17.81433,13.26395,4.288275,0
17.81433,13.26395,4.119511,0
17.81433,13.26395,3.95121,0
17.81433,13.26395,3.783331,0
17.81433,13.26395,3.615881,0
17.81433,13.26395,3.448832,0
17.81433,13.26395,3.282173,0
17.81433,13.26395,3.115856,0
17.81433,13.26395,2.949892,0
17.81433,13.26395,2.784241,0
17.81433,13.26395,2.6189,0
17.81433,13.26395,2.453844,0
17.81433,13.26395,2.289068,0
17.81433,13.26395,2.124529,0
17.81433,13.26395,1.960232,0
17.81433,13.26395,1.796118,0
17.81433,13.26395,1.632223,0
17.81433,13.26395,1.468496,0
17.81433,13.26395,1.304932,0
17.81433,13.26395,1.14151,0
17.81433,13.26395,0.9782124,0
17.81433,13.26395,0.8150253,0
17.81433,13.26395,0.6518974,0
17.81433,13.26395,0.4888706,0
17.81433,13.26395,0.3258743,0
17.81433,13.26395,0.1629448,0
17.81433,13.26395,-1.907349E-06,0
17.81433,13.26395,-0.1629333,0
17.81433,13.26395,-0.325882,0
17.81433,13.26395,-0.4888649,0
17.81433,13.26395,-0.6519032,0
17.81427,13.26395,-0.8150101,0
17.05267,12.69684,-0.9363804,0
15.56134,11.58646,-0.997139,0
14.30902,10.65402,-1.048159,0
13.18323,9.815765,-1.086739,0
12.0094,8.941803,-1.100348,0
11.40759,8.493744,-1.150166,0
11.06207,8.23645,-1.217222,0
11.04877,8.226532,-1.317663,0
10.40942,7.750519,-1.337564,0
9.846985,7.331726,-1.356375,0
9.34137,6.955261,-1.373281,0
8.888916,6.618408,-1.389269,0
8.473328,6.30896,-1.403101,0
8.07196,6.010101,-1.41184,0
7.706177,5.737762,-1.419804,0
7.371399,5.488495,-1.427094,0
7.063843,5.259491,-1.433788,0
6.780273,5.04837,-1.439964,0
