15.90959,-9.316784,2.173981,0
15.90959,-9.316784,2.036968,0
15.90959,-9.316784,1.900179,0
15.90959,-9.316784,1.763597,0
15.90959,-9.316784,1.627195,0
15.90959,-9.316784,1.490984,0
15.90959,-9.316784,1.354923,0
15.90959,-9.316784,1.219015,0
15.90959,-9.316784,1.083237,0
15.90959,-9.316784,0.9475784,0
15.90959,-9.316784,0.8120193,0
15.90959,-9.316784,0.676548,0
15.90959,-9.316784,0.5411472,0
15.90959,-9.316784,0.4058094,0
15.90959,-9.316784,0.2705173,0
15.90959,-9.316784,0.1352539,0
15.90959,-9.316784,-1.907349E-06,0
15.90956,-9.31673,-0.135252,0
15.90956,-9.31673,-0.2705212,0
15.90953,-9.316744,-0.4058132,0
15.90956,-9.31673,-0.541153,0
15.90953,-9.316744,-0.6765499,0
15.90953,-9.316744,-0.8120213,0
15.90953,-9.316744,-0.9475784,0
14.98683,-8.776384,-1.020416,0
13.89712,-8.138269,-1.064821,0
12.95425,-7.586102,-1.103241,0
11.89979,-6.9686,-1.115202,0
11.2668,-6.597932,-1.152346,0
10.68227,-6.255631,-1.184141,0
10.15778,-5.948442,-1.213207,0
9.853817,-5.770462,-1.261629,0
9.853817,-5.770462,-1.346491,0
9.544326,-5.589235,-1.386534,0
9.072891,-5.313118,-1.396465,0
8.645055,-5.06259,-1.405478,0
8.254982,-4.834157,-1.413694,0
7.897852,-4.625027,-1.421217,0
7.569618,-4.432817,-1.428129,0
7.266904,-4.255543,-1.434507,0
6.986756,-4.091481,-1.440409,0
6.726802,-3.93928,-1.445885,0
6.484838,-3.797571,-1.450983,0
6.259079,-3.66538,-1.455738,0
6.047908,-3.541711,-1.460186,0
5.849901,-3.425743,-1.464357,0
5.663917,-3.316846,-1.468275,0
5.488837,-3.214308,-1.471964,0
15.84667,-9.317089,4.396349,0
15.8467,-9.317142,4.25403,0
15.84667,-9.317089,4.112194,0
15.8467,-9.317142,3.970823,0
15.84667,-9.317089,3.829897,0
15.84667,-9.317089,3.689402,0
15.8467,-9.317142,3.549322,0
15.8467,-9.317142,3.409637,0
15.8467,-9.317142,3.270332,0
15.8467,-9.317142,3.13139,0
15.8467,-9.317142,2.992794,0
15.84667,-9.317089,2.854528,0
15.84667,-9.317089,2.716579,0
15.84667,-9.317089,2.578928,0
15.8467,-9.317142,2.441561,0
15.84667,-9.317089,2.304457,0
15.8467,-9.317142,2.167612,0
15.8467,-9.317142,2.030996,0
15.8467,-9.317142,1.894604,0
15.8467,-9.317142,1.758421,0
15.8467,-9.317142,1.622427,0
15.84667,-9.317089,1.486609,0
15.8467,-9.317142,1.350952,0
15.84667,-9.317089,1.215441,0
15.8467,-9.317142,1.08007,0
15.84667,-9.317089,0.9448013,0
15.8467,-9.317142,0.8096409,0
15.8467,-9.317142,0.6745625,0
15.8467,-9.317142,0.5395679,0
15.8467,-9.317142,0.4046249,0
15.8467,-9.317142,0.2697258,0
15.84667,-9.317089,0.1348591,0
15.84667,-9.317089,-1.907349E-06,0
15.84667,-9.317089,-0.1348553,0
15.84667,-9.317089,-0.2697258,0
15.84667,-9.317089,-0.4046249,0
15.84667,-9.317089,-0.5395679,0
15.84664,-9.317104,-0.6745644,0
15.84667,-9.317089,-0.8096409,0
15.84667,-9.317089,-0.9448013,0
14.96493,-8.798685,-1.019968,0
13.87724,-8.159186,-1.064386,0
12.9361,-7.605797,-1.102823,0
11.89159,-6.991696,-1.115576,0
11.24851,-6.613603,-1.151655,0
10.66711,-6.27175,-1.183672,0
10.14356,-5.963914,-1.212751,0
9.814485,-5.770422,-1.257877,0
9.814458,-5.770436,-1.342487,0
9.533783,-5.60541,-1.386425,0
9.062923,-5.328562,-1.39636,0
8.635609,-5.077332,-1.405378,0
8.245977,-4.848242,-1.413599,0
7.889264,-4.638537,-1.421125,0
7.561419,-4.445767,-1.428041,0
7.259042,-4.267962,-1.434423,0
6.979232,-4.103437,-1.440327,0
6.719534,-3.95075,-1.445807,0
6.477857,-3.808676,-1.450905,0
6.252357,-3.676065,-1.455664,0
6.041419,-3.552061,-1.460115,0
5.843676,-3.435811,-1.464287,0
5.657842,-3.326552,-1.468206,0
5.482943,-3.223708,-1.471897,0
15.78416,-9.317448,4.383509,0
15.78416,-9.317448,4.241606,0
15.78416,-9.317448,4.100183,0
15.78416,-9.317448,3.959227,0
15.78416,-9.317448,3.818712,0
15.78416,-9.317448,3.678629,0
15.78416,-9.317448,3.538956,0
15.78416,-9.317448,3.399677,0
15.78416,-9.317448,3.26078,0
15.78416,-9.317448,3.122246,0
15.78416,-9.317448,2.984053,0
15.78416,-9.317448,2.846193,0
15.78416,-9.317448,2.708643,0
15.78416,-9.317448,2.571396,0
15.78416,-9.317448,2.434429,0
15.78416,-9.317448,2.297729,0
15.78416,-9.317448,2.16128,0
15.78416,-9.317448,2.025063,0
15.78416,-9.317448,1.889072,0
15.78416,-9.317448,1.753286,0
15.78416,-9.317448,1.617693,0
15.78416,-9.317448,1.482264,0
15.78416,-9.317448,1.347002,0
15.78416,-9.317448,1.211893,0
15.78416,-9.317448,1.076906,0
15.78416,-9.317448,0.9420414,0
15.78416,-9.317448,0.8072681,0
15.78416,-9.317448,0.6725883,0
15.78416,-9.317448,0.5379944,0
15.78416,-9.317448,0.4034443,0
15.78416,-9.317448,0.2689304,0
15.78416,-9.317448,0.1344585,0
15.78416,-9.317448,0,0
15.78416,-9.317448,-0.1344624,0
15.78416,-9.317448,-0.2689381,0
15.78416,-9.317448,-0.4034424,0
15.78416,-9.317448,-0.5379906,0
15.78414,-9.317463,-0.6725979,0
15.78416,-9.317448,-0.8072758,0
15.78416,-9.317448,-0.9420395,0
14.94302,-8.820916,-1.019522,0
13.85736,-8.180034,-1.063955,0
12.91793,-7.625505,-1.102407,0
11.88335,-7.014823,-1.115952,0
11.23022,-6.629273,-1.150965,0
10.65192,-6.287885,-1.183205,0
10.12933,-5.979385,-1.212294,0
9.775345,-5.770417,-1.254152,0
9.775345,-5.770417,-1.338512,0
9.52327,-5.621637,-1.38632,0
9.052956,-5.344006,-1.396257,0
8.626132,-5.092021,-1.405279,0
8.236973,-4.862327,-1.413504,0
7.880672,-4.651979,-1.421034,0
7.553191,-4.458664,-1.427956,0
7.251152,-4.280396,-1.434338,0
6.971653,-4.115424,-1.440245,0
6.712268,-3.962288,-1.445726,0
6.470877,-3.81978,-1.45083,0
6.24561,-3.686834,-1.455591,0
6.034904,-3.562425,-1.460043,0
5.837394,-3.445838,-1.464216,0
5.651768,-3.336259,-1.46814,0
5.477079,-3.233161,-1.47183,0
15.72201,-9.317822,4.370758,0
15.72201,-9.317822,4.229269,0
15.72201,-9.317822,4.088259,0
15.72201,-9.317822,3.947708,0
15.72201,-9.317822,3.807604,0
15.72201,-9.317822,3.667927,0
15.72201,-9.317822,3.528662,0
15.72201,-9.317822,3.38979,0
15.72201,-9.317822,3.251297,0
15.72201,-9.317822,3.113161,0
15.72201,-9.317822,2.975372,0
15.72201,-9.317822,2.837914,0
15.72201,-9.317822,2.700766,0
15.72201,-9.317822,2.563917,0
15.72201,-9.317822,2.427347,0
15.72201,-9.317822,2.291044,0
15.72201,-9.317822,2.154993,0
15.72201,-9.317822,2.01918,0
15.72201,-9.317822,1.883579,0
15.72201,-9.317822,1.748184,0
15.72201,-9.317822,1.612984,0
15.72201,-9.317822,1.477949,0
15.72201,-9.317822,1.34309,0
15.72201,-9.317822,1.208364,0
15.72201,-9.317822,1.073771,0
15.72201,-9.317822,0.9393024,0
15.72201,-9.317822,0.8049221,0
15.72201,-9.317822,0.6706409,0
15.72201,-9.317822,0.5364285,0
15.72201,-9.317822,0.4022675,0
15.72201,-9.317822,0.2681503,0
15.72201,-9.317822,0.1340637,0
15.72201,-9.317822,-1.907349E-06,0
15.72201,-9.317822,-0.1340714,0
15.72201,-9.317822,-0.2681561,0
15.72201,-9.317822,-0.4022694,0
15.72201,-9.317822,-0.5364265,0
15.72199,-9.317769,-0.6706409,0
15.72199,-9.317769,-0.8049259,0
15.72199,-9.317769,-0.9393005,0
14.92111,-8.843147,-1.019075,0
13.83745,-8.200897,-1.063524,0
12.89972,-7.645161,-1.101992,0
11.87507,-7.037896,-1.116327,0
11.21193,-6.644876,-1.150278,0
10.63676,-6.304005,-1.182739,0
10.1151,-5.99479,-1.211843,0
9.736478,-5.770402,-1.250454,0
9.736478,-5.770402,-1.334564,0
9.512726,-5.637812,-1.386213,0
9.042933,-5.359411,-1.396156,0
8.616631,-5.106725,-1.405182,0
8.227911,-4.876373,-1.41341,0
7.872027,-4.665451,-1.420944,0
7.544936,-4.471575,-1.42787,0
7.243234,-4.292777,-1.434256,0
6.964101,-4.127327,-1.440165,0
6.704999,-3.973757,-1.445648,0
6.46384,-3.830845,-1.450754,0
6.23886,-3.697534,-1.455515,0
6.028388,-3.57279,-1.459972,0
5.831057,-3.455828,-1.464148,0
5.645694,-3.345966,-1.468073,0
5.471185,-3.242561,-1.471766,0
15.66022,-9.318142,4.358095,0
15.66022,-9.318142,4.217014,0
15.66022,-9.318142,4.076412,0
15.66022,-9.318142,3.93627,0
15.66022,-9.318142,3.796572,0
15.66022,-9.318142,3.657301,0
15.66022,-9.318142,3.518436,0
15.66022,-9.318142,3.379969,0
15.66022,-9.318142,3.241875,0
15.66022,-9.318142,3.104139,0
15.66022,-9.318142,2.966751,0
15.66022,-9.318142,2.829691,0
15.66022,-9.318142,2.692942,0
15.66022,-9.318142,2.556488,0
15.66022,-9.318142,2.420315,0
15.66022,-9.318142,2.284407,0
15.66022,-9.318142,2.148748,0
15.66022,-9.318142,2.013327,0
15.66022,-9.318142,1.878117,0
15.66022,-9.318142,1.743118,0
15.66022,-9.318142,1.608311,0
15.66022,-9.318142,1.473671,0
15.66022,-9.318142,1.339199,0
15.66022,-9.318142,1.204866,0
15.66022,-9.318142,1.070665,0
15.66022,-9.318142,0.9365826,0
15.66022,-9.318142,0.8025875,0
15.66022,-9.318142,0.6686935,0
15.66022,-9.318142,0.534874,0
15.66022,-9.318142,0.4011021,0
15.66022,-9.318142,0.2673759,0
15.66022,-9.318142,0.1336765,0
15.66022,-9.318142,-1.907349E-06,0
15.66022,-9.318142,-0.1336842,0
15.66019,-9.318157,-0.2673779,0
15.66019,-9.318157,-0.401104,0
15.66019,-9.318157,-0.5348721,0
15.66019,-9.318157,-0.6686974,0
15.66019,-9.318157,-0.8025951,0
15.66019,-9.318157,-0.9365788,0
14.89917,-8.865325,-1.018635,0
13.81756,-8.221745,-1.063097,0
12.88149,-7.664762,-1.101576,0
11.86677,-7.060983,-1.116701,0
11.19366,-6.660464,-1.149593,0
10.62157,-6.320071,-1.182276,0
10.10084,-6.010208,-1.21139,0
9.69783,-5.770408,-1.24678,0
9.69783,-5.770408,-1.330645,0
9.502127,-5.653948,-1.386106,0
9.032934,-5.374801,-1.396055,0
8.607073,-5.121389,-1.405085,0
8.218821,-4.890366,-1.413317,0
7.863354,-4.678869,-1.420855,0
7.536625,-4.484447,-1.427782,0
7.235315,-4.305158,-1.434172,0
6.956493,-4.139259,-1.440084,0
6.697679,-3.985256,-1.44557,0
6.456832,-3.841964,-1.450678,0
6.232055,-3.708195,-1.455442,0
6.021844,-3.5831,-1.459902,0
5.824748,-3.46587,-1.464079,0
5.63962,-3.355673,-1.468008,0
5.46529,-3.251961,-1.471703,0
15.5988,-9.318531,4.345516,0
15.5988,-9.318531,4.204844,0
15.5988,-9.318531,4.064648,0
15.5988,-9.318531,3.924911,0
15.5988,-9.318531,3.785616,0
15.5988,-9.318531,3.646744,0
15.5988,-9.318531,3.508284,0
15.5988,-9.318531,3.370214,0
15.5988,-9.318531,3.232519,0
15.5988,-9.318531,3.095182,0
15.5988,-9.318531,2.958191,0
15.5988,-9.318531,2.821524,0
15.5988,-9.318531,2.685169,0
15.5988,-9.318531,2.54911,0
15.5988,-9.318531,2.413328,0
15.5988,-9.318531,2.277815,0
15.5988,-9.318531,2.142548,0
15.5988,-9.318531,2.007513,0
15.5988,-9.318531,1.872702,0
15.5988,-9.318531,1.738092,0
15.5988,-9.318531,1.603666,0
15.5988,-9.318531,1.469423,0
15.5988,-9.318531,1.335327,0
15.5988,-9.318531,1.201387,0
15.5988,-9.318531,1.067575,0
15.5988,-9.318531,0.9338799,0
15.5988,-9.318531,0.8002739,0
15.5988,-9.318531,0.6667652,0
15.5988,-9.318531,0.5333271,0
15.5988,-9.318531,0.3999405,0
15.5988,-9.318531,0.2666016,0
15.5988,-9.318531,0.1332912,0
15.5988,-9.318531,-1.907349E-06,0
15.5988,-9.318531,-0.133297,0
15.59877,-9.318478,-0.2666073,0
15.59877,-9.318478,-0.3999462,0
15.59877,-9.318478,-0.5333271,0
15.59875,-9.318493,-0.666769,0
15.59875,-9.318493,-0.8002777,0
15.59875,-9.318493,-0.933876,0
14.8772,-8.887449,-1.01819,0
13.7976,-8.2425,-1.06267,0
12.86329,-7.68435,-1.101164,0
11.85843,-7.084085,-1.117077,0
11.17537,-6.675998,-1.148911,0
10.60638,-6.336137,-1.181812,0
10.08661,-6.025612,-1.210939,0
9.659372,-5.770378,-1.243132,0
9.659372,-5.770378,-1.32675,0
9.491503,-5.670098,-1.386002,0
9.022882,-5.390152,-1.395954,0
8.59754,-5.13604,-1.404987,0
8.209759,-4.904411,-1.413223,0
7.85468,-4.692286,-1.420765,0
7.528369,-4.497358,-1.427696,0
7.227369,-4.317553,-1.434088,0
6.948858,-4.151138,-1.440004,0
6.690356,-3.996755,-1.445494,0
6.449768,-3.853045,-1.450602,0
6.225279,-3.71891,-1.45537,0
6.015302,-3.593479,-1.459829,0
5.818438,-3.475845,-1.464014,0
5.633462,-3.365355,-1.467939,0
5.45937,-3.261375,-1.471638,0
15.53772,-9.318882,4.333025,0
15.53772,-9.318882,4.192755,0
15.53774,-9.318867,4.052961,0
15.53769,-9.318829,3.913626,0
15.53772,-9.318882,3.774733,0
15.53772,-9.318882,3.636261,0
15.53769,-9.318829,3.498198,0
15.53772,-9.318882,3.360523,0
15.53772,-9.318882,3.223227,0
15.53772,-9.318882,3.086285,0
15.53772,-9.318882,2.949686,0
15.53772,-9.318882,2.813412,0
15.53772,-9.318882,2.67745,0
15.53772,-9.318882,2.541782,0
15.53772,-9.318882,2.406391,0
15.53772,-9.318882,2.271265,0
15.53772,-9.318882,2.136387,0
15.53772,-9.318882,2.001741,0
15.53772,-9.318882,1.867317,0
15.53772,-9.318882,1.733095,0
15.53772,-9.318882,1.599056,0
15.53772,-9.318882,1.465199,0
15.53769,-9.318829,1.331486,0
15.53772,-9.318882,1.197935,0
15.53769,-9.318829,1.064507,0
15.53772,-9.318882,0.9311905,0
15.53772,-9.318882,0.7979755,0
15.53772,-9.318882,0.6648521,0
15.53772,-9.318882,0.5317898,0
15.53772,-9.318882,0.3987942,0
15.53772,-9.318882,0.2658405,0
15.53772,-9.318882,0.132906,0
15.53769,-9.318829,-1.907349E-06,0
15.53769,-9.318829,-0.1329136,0
15.53769,-9.318829,-0.2658405,0
15.53769,-9.318829,-0.398798,0
15.53766,-9.318843,-0.5317955,0
15.53766,-9.318843,-0.6648502,0
15.53766,-9.318843,-0.7979774,0
15.53766,-9.318843,-0.9311924,0
14.85526,-8.909558,-1.017752,0
13.77771,-8.263281,-1.062243,0
12.84505,-7.703884,-1.100752,0
11.85002,-7.107162,-1.117455,0
11.15708,-6.691533,-1.14823,0
10.59116,-6.352149,-1.181353,0
10.07232,-6.040977,-1.210489,0
9.621161,-5.770354,-1.23951,0
9.621161,-5.770354,-1.322882,0
9.480904,-5.686234,-1.385895,0
9.012802,-5.405519,-1.395855,0
8.587982,-5.150704,-1.404892,0
8.200668,-4.918405,-1.413132,0
7.846005,-4.705704,-1.420675,0
7.520059,-4.510231,-1.42761,0
7.219395,-4.329894,-1.434004,0
6.941222,-4.163017,-1.439924,0
6.683032,-4.008185,-1.445417,0
6.442702,-3.864056,-1.450529,0
6.218474,-3.729571,-1.455299,0
6.00873,-3.603804,-1.459761,0
5.812074,-3.485848,-1.463943,0
5.627332,-3.375022,-1.467875,0
5.45342,-3.270736,-1.471575,0
15.47696,-9.319193,4.320618,0
15.47696,-9.319193,4.18075,0
15.47696,-9.319193,4.041357,0
15.47696,-9.319193,3.902422,0
15.47696,-9.319193,3.763922,0
15.47696,-9.319193,3.625849,0
15.47696,-9.319193,3.488182,0
15.47696,-9.319193,3.350901,0
15.47696,-9.319193,3.213997,0
15.47696,-9.319193,3.077448,0
15.47696,-9.319193,2.94124,0
15.47696,-9.319193,2.805357,0
15.47696,-9.319193,2.669783,0
15.47696,-9.319193,2.534504,0
15.47698,-9.319178,2.399502,0
15.47696,-9.319193,2.264761,0
15.47696,-9.319193,2.13027,0
15.47696,-9.319193,1.99601,0
15.47696,-9.319193,1.861971,0
15.47696,-9.319193,1.72813,0
15.47696,-9.319193,1.594481,0
15.47696,-9.319193,1.461002,0
15.47696,-9.319193,1.327675,0
15.47696,-9.319193,1.194498,0
15.47696,-9.319193,1.061457,0
15.47696,-9.319193,0.928524,0
15.47696,-9.319193,0.7956886,0
15.47696,-9.319193,0.6629448,0
15.47696,-9.319193,0.5302696,0
15.47696,-9.319193,0.3976574,0
15.47696,-9.319193,0.2650757,0
15.47696,-9.319193,0.1325321,0
15.47696,-9.319193,-1.907349E-06,0
15.47696,-9.319193,-0.1325321,0
15.47696,-9.319193,-0.2650814,0
15.47696,-9.319193,-0.3976536,0
15.47696,-9.319193,-0.5302734,0
15.47696,-9.319193,-0.6629467,0
15.47696,-9.319193,-0.7956924,0
15.47696,-9.319193,-0.9285259,0
14.83329,-8.931614,-1.017313,0
13.75774,-8.283968,-1.061819,0
12.82679,-7.723431,-1.100342,0
11.84164,-7.130224,-1.11783,0
11.13881,-6.707052,-1.147552,0
10.57597,-6.368147,-1.180893,0
10.05804,-6.056273,-1.210043,0
9.583169,-5.77035,-1.23591,0
9.583169,-5.77035,-1.319042,0
9.470249,-5.70233,-1.385792,0
9.00272,-5.420815,-1.395756,0
8.578394,-5.165316,-1.404797,0
8.191495,-4.932372,-1.413038,0
7.837275,-4.719083,-1.420588,0
7.511719,-4.52305,-1.427525,0
7.21142,-4.342236,-1.433924,0
6.933532,-4.174925,-1.439844,0
6.675655,-4.019646,-1.445339,0
6.435637,-3.875068,-1.450457,0
6.211642,-3.740247,-1.455225,0
6.00213,-3.614076,-1.459692,0
5.805737,-3.495837,-1.463877,0
5.621174,-3.384705,-1.467808,0
5.447469,-3.280097,-1.471508,0
15.41661,-9.319557,4.308294,0
15.41661,-9.319557,4.168825,0
15.41661,-9.319557,4.029829,0
15.41661,-9.319557,3.891291,0
15.41661,-9.319557,3.753189,0
15.41661,-9.319557,3.615507,0
15.41661,-9.319557,3.478233,0
15.41661,-9.319557,3.341347,0
15.41661,-9.319557,3.20483,0
15.41661,-9.319557,3.068668,0
15.41661,-9.319557,2.932848,0
15.41661,-9.319557,2.797358,0
15.41661,-9.319557,2.662169,0
15.41661,-9.319557,2.527277,0
15.41661,-9.319557,2.392656,0
15.41661,-9.319557,2.258303,0
15.41661,-9.319557,2.124195,0
15.41661,-9.319557,1.990316,0
15.41661,-9.319557,1.856659,0
15.41661,-9.319557,1.723204,0
15.41661,-9.319557,1.589931,0
15.41661,-9.319557,1.456833,0
15.41661,-9.319557,1.323896,0
15.41661,-9.319557,1.191103,0
15.41661,-9.319557,1.05843,0
15.41661,-9.319557,0.9258785,0
15.41661,-9.319557,0.7934208,0
15.41661,-9.319557,0.6610527,0
15.41661,-9.319557,0.5287552,0
15.41661,-9.319557,0.3965187,0
15.41661,-9.319557,0.2643223,0
15.41661,-9.319557,0.1321507,0
15.41661,-9.319557,-1.907349E-06,0
15.41661,-9.319557,-0.1321545,0
15.41658,-9.319504,-0.2643242,0
15.41655,-9.319518,-0.3965206,0
15.41655,-9.319518,-0.5287609,0
15.41655,-9.319518,-0.6610565,0
15.41655,-9.319518,-0.7934227,0
15.41655,-9.319518,-0.9258766,0
14.8113,-8.953617,-1.016876,0
13.7378,-8.30471,-1.061396,0
12.80855,-7.742965,-1.099932,0
11.83314,-7.153277,-1.118208,0
11.12054,-6.722504,-1.146877,0
10.56072,-6.384106,-1.180437,0
10.04375,-6.07157,-1.209599,0
9.545422,-5.77035,-1.232336,0
9.545422,-5.77035,-1.315226,0
9.459567,-5.718441,-1.385687,0
8.992584,-5.436143,-1.395655,0
8.568779,-5.179941,-1.404699,0
8.182348,-4.946326,-1.412949,0
7.828546,-4.732462,-1.4205,0
7.503351,-4.535883,-1.427439,0
7.203445,-4.354577,-1.433842,0
6.925897,-4.186803,-1.439764,0
6.668277,-4.031106,-1.445263,0
6.428516,-3.886109,-1.45038,0
6.204781,-3.750869,-1.455154,0
5.995558,-3.624401,-1.459621,0
5.799343,-3.505787,-1.46381,0
5.615045,-3.394372,-1.467743,0
5.441493,-3.289472,-1.471445,0
15.35653,-9.319912,4.296053,0
15.35656,-9.319897,4.156981,0
15.35656,-9.319897,4.018379,0
15.35656,-9.319897,3.880234,0
15.35653,-9.319912,3.742523,0
15.35656,-9.319897,3.605234,0
15.35656,-9.319897,3.468348,0
15.35656,-9.319897,3.33185,0
15.35653,-9.319912,3.195721,0
15.35653,-9.319912,3.059952,0
15.35656,-9.319897,2.924517,0
15.35656,-9.319897,2.789408,0
15.35656,-9.319897,2.654604,0
15.35656,-9.319897,2.520092,0
15.35656,-9.319897,2.385859,0
15.35656,-9.319897,2.251884,0
15.35656,-9.319897,2.118158,0
15.35656,-9.319897,1.984665,0
15.35656,-9.319897,1.851385,0
15.35656,-9.319897,1.718306,0
15.35656,-9.319897,1.585413,0
15.35656,-9.319897,1.452696,0
15.35656,-9.319897,1.320131,0
15.35656,-9.319897,1.187712,0
15.35656,-9.319897,1.055422,0
15.35653,-9.319912,0.9232426,0
15.35656,-9.319897,0.7911625,0
15.35656,-9.319897,0.6591759,0
15.35656,-9.319897,0.5272541,0
15.35656,-9.319897,0.3953934,0
15.35656,-9.319897,0.2635689,0
15.35656,-9.319897,0.1317768,0
15.35656,-9.319897,-1.907349E-06,0
15.3565,-9.319859,-0.1317806,0
15.3565,-9.319859,-0.2635727,0
15.3565,-9.319859,-0.3953953,0
15.3565,-9.319859,-0.5272579,0
15.3565,-9.319859,-0.6591778,0
15.3565,-9.319859,-0.7911682,0
15.3565,-9.319859,-0.9232464,0
14.7893,-8.975618,-1.016441,0
13.71783,-8.325329,-1.060972,0
12.79026,-7.762391,-1.099524,0
11.82459,-7.17636,-1.118584,0
11.10227,-6.737955,-1.146206,0
10.5455,-6.400051,-1.179979,0
10.02946,-6.086867,-1.209154,0
9.53042,-5.784019,-1.231703,0
9.507866,-5.770316,-1.311438,0
9.448856,-5.734498,-1.385586,0
8.982475,-5.451455,-1.395555,0
8.559166,-5.194567,-1.404606,0
8.173174,-4.960294,-1.412857,0
7.819789,-4.745855,-1.420412,0
7.495011,-4.548702,-1.427355,0
7.195414,-4.366879,-1.43376,0
6.918177,-4.198658,-1.439686,0
6.660896,-4.042498,-1.445187,0
6.421397,-3.89715,-1.450308,0
6.197949,-3.761545,-1.455084,0
5.988931,-3.634687,-1.459551,0
5.792949,-3.515738,-1.463741,0
5.608831,-3.404016,-1.46768,0
5.435513,-3.29878,-1.471384,0
15.29684,-9.3202,4.283894,0
15.29684,-9.3202,4.145216,0
15.29684,-9.3202,4.007008,0
15.29684,-9.3202,3.869251,0
15.29684,-9.3202,3.731932,0
15.29684,-9.3202,3.595032,0
15.29684,-9.3202,3.458534,0
15.29684,-9.3202,3.32242,0
15.29684,-9.3202,3.18668,0
15.29684,-9.3202,3.051292,0
15.29684,-9.3202,2.916241,0
15.29684,-9.3202,2.781511,0
15.29684,-9.3202,2.647091,0
15.29684,-9.3202,2.512962,0
15.29684,-9.3202,2.379107,0
15.29684,-9.3202,2.24551,0
15.29684,-9.3202,2.112165,0
15.29684,-9.3202,1.979048,0
15.29684,-9.3202,1.846146,0
15.29684,-9.3202,1.713444,0
15.29684,-9.3202,1.580925,0
15.29684,-9.3202,1.448586,0
15.29684,-9.3202,1.316397,0
15.29684,-9.3202,1.184353,0
15.29684,-9.3202,1.052437,0
15.29684,-9.3202,0.9206295,0
15.29684,-9.3202,0.7889271,0
15.29684,-9.3202,0.6573048,0
15.29684,-9.3202,0.5257607,0
15.29684,-9.3202,0.3942757,0
15.29684,-9.3202,0.2628288,0
15.29684,-9.3202,0.131403,0
15.29684,-9.3202,0,0
15.29684,-9.3202,-0.1314068,0
15.29684,-9.3202,-0.2628269,0
15.29684,-9.3202,-0.3942757,0
15.29681,-9.320213,-0.5257664,0
15.29681,-9.320213,-0.6573124,0
15.29681,-9.320213,-0.7889309,0
15.29681,-9.320213,-0.9206333,0
14.76732,-8.997606,-1.016006,0
13.69786,-8.345949,-1.060555,0
12.772,-7.781872,-1.099119,0
11.81607,-7.199427,-1.118963,0
11.08399,-6.753407,-1.145533,0
10.53064,-6.416214,-1.179567,0
10.01514,-6.102109,-1.208712,0
9.518461,-5.799506,-1.231466,0
9.470529,-5.770301,-1.307676,0
9.438146,-5.750556,-1.385483,0
8.97231,-5.466728,-1.395458,0
8.549494,-5.209153,-1.404512,0
8.164001,-4.974262,-1.412766,0
7.811029,-4.75918,-1.420324,0
7.486588,-4.561496,-1.427271,0
7.187357,-4.379197,-1.43368,0
6.910485,-4.210497,-1.439608,0
6.653462,-4.053918,-1.445112,0
6.414248,-3.908138,-1.450235,0
6.191087,-3.772167,-1.455011,0
5.982274,-3.644919,-1.459486,0
5.786529,-3.525702,-1.463675,0
5.602645,-3.413644,-1.467615,0
5.42951,-3.30817,-1.471319,0
15.23747,-9.320583,4.271818,0
15.23747,-9.320583,4.133532,0
15.23747,-9.320583,3.995714,0
15.23747,-9.320583,3.858345,0
15.23747,-9.320516,3.721411,0
15.23747,-9.320583,3.584898,0
15.23747,-9.320583,3.448782,0
15.23744,-9.32053,3.313055,0
15.23747,-9.320583,3.177696,0
15.23747,-9.320583,3.042688,0
15.23744,-9.32053,2.90802,0
15.23747,-9.320583,2.773672,0
15.23747,-9.320583,2.639631,0
15.2375,-9.320569,2.505877,0
15.23747,-9.320583,2.3724,0
15.23744,-9.32053,2.239182,0
15.23747,-9.320583,2.106211,0
15.23747,-9.320583,1.973467,0
15.2375,-9.320569,1.840939,0
15.23747,-9.320583,1.708612,0
15.2375,-9.320569,1.576471,0
15.23744,-9.32053,1.4445,0
15.23747,-9.320583,1.312685,0
15.23747,-9.320583,1.181013,0
15.23747,-9.320583,1.049469,0
15.2375,-9.320569,0.9180393,0
15.2375,-9.320569,0.7867031,0
15.23744,-9.32053,0.6554527,0
15.23747,-9.320516,0.5242805,0
15.23747,-9.320583,0.3931637,0
15.23747,-9.320516,0.2620869,0
15.23747,-9.320583,0.131031,0
15.23744,-9.32053,-1.907349E-06,0
15.23744,-9.32053,-0.1310368,0
15.23744,-9.32053,-0.262085,0
15.23744,-9.32053,-0.3931637,0
15.23744,-9.32053,-0.5242825,0
15.23744,-9.32053,-0.6554604,0
15.23744,-9.32053,-0.7867069,0
15.23744,-9.32053,-0.9180374,0
14.74529,-9.019487,-1.015574,0
13.67786,-8.366583,-1.060135,0
12.75367,-7.801244,-1.098715,0
11.80746,-7.22247,-1.119339,0
11.06575,-6.768775,-1.144865,0
10.51782,-6.43363,-1.17939,0
10.00082,-6.117352,-1.208267,0
9.5065,-5.814994,-1.231232,0
9.433411,-5.770307,-1.30394,0
9.427407,-5.766627,-1.38538,0
8.962118,-5.482016,-1.395359,0
8.539822,-5.223671,-1.404417,0
8.154799,-4.988176,-1.412676,0
7.802217,-4.772535,-1.420237,0
7.478165,-4.574291,-1.427189,0
7.179299,-4.391514,-1.433598,0
6.902737,-4.222299,-1.439531,0
6.646026,-4.065271,-1.445036,0
6.407129,-3.919179,-1.450159,0
6.18417,-3.782751,-1.454943,0
5.97562,-3.65522,-1.459415,0
5.780106,-3.535599,-1.46361,0
5.596458,-3.423273,-1.46755,0
5.423531,-3.317477,-1.471258,0
15.17843,-9.320861,4.259823,0
15.17843,-9.320861,4.121923,0
15.17843,-9.320861,3.984491,0
15.17843,-9.320861,3.847511,0
15.17843,-9.320861,3.710962,0
15.17843,-9.320861,3.574831,0
15.17843,-9.320861,3.439102,0
15.17843,-9.320861,3.303755,0
15.17843,-9.320861,3.16877,0
15.17843,-9.320861,3.034147,0
15.17843,-9.320861,2.899853,0
15.17843,-9.320861,2.765884,0
15.17843,-9.320861,2.632215,0
15.17843,-9.320861,2.49884,0
15.17843,-9.320861,2.36574,0
15.17843,-9.320861,2.232893,0
15.17843,-9.320861,2.100296,0
15.17843,-9.320861,1.967928,0
15.17843,-9.320861,1.835772,0
15.17843,-9.320861,1.703815,0
15.17843,-9.320861,1.572044,0
15.17843,-9.320861,1.440445,0
15.17843,-9.320861,1.308998,0
15.17843,-9.320861,1.177698,0
15.17843,-9.320861,1.046522,0
15.17843,-9.320861,0.9154625,0
15.17843,-9.320861,0.7844944,0
15.17843,-9.320861,0.653614,0
15.17843,-9.320861,0.5228081,0
15.17843,-9.320861,0.3920574,0
15.17843,-9.320861,0.2613487,0
15.17843,-9.320861,0.1306686,0
15.17843,-9.320861,0,0
15.17843,-9.320861,-0.1306686,0
15.1784,-9.320875,-0.2613487,0
15.1784,-9.320875,-0.3920593,0
15.1784,-9.320875,-0.52281,0
15.1784,-9.320875,-0.6536198,0
15.1784,-9.320875,-0.7844963,0
15.1784,-9.320875,-0.9154606,0
14.72332,-9.041406,-1.015142,0
13.65789,-8.387135,-1.059717,0
12.73538,-7.820602,-1.098312,0
11.7988,-7.245475,-1.119717,0
11.04747,-6.784091,-1.144199,0
10.50505,-6.451016,-1.179216,0
9.986507,-6.132596,-1.207829,0
9.494539,-5.830481,-1.230997,0
9.396482,-5.770278,-1.300228,0
9.396482,-5.770278,-1.382318,0
8.951923,-5.497236,-1.395262,0
8.530124,-5.238273,-1.404325,0
8.145539,-5.002052,-1.412586,0
7.793402,-4.785821,-1.420153,0
7.469769,-4.58707,-1.427107,0
7.171239,-4.403762,-1.433517,0
6.894962,-4.234114,-1.439453,0
6.638619,-4.076677,-1.444962,0
6.399952,-3.930113,-1.450087,0
6.177282,-3.793387,-1.454874,0
5.968964,-3.665453,-1.459349,0
5.773685,-3.545563,-1.463545,0
5.590217,-3.432863,-1.467485,0
5.417498,-3.326813,-1.471197,0
15.11975,-9.321222,4.247908,0
15.11975,-9.321222,4.110394,0
15.11975,-9.321222,3.973345,0
15.11975,-9.321222,3.83675,0
15.11975,-9.321222,3.700581,0
15.11975,-9.321222,3.564831,0
15.11975,-9.321222,3.429478,0
15.11975,-9.321222,3.29451,0
15.11975,-9.321222,3.159908,0
15.11975,-9.321222,3.025658,0
15.11975,-9.321222,2.891743,0
15.11975,-9.321222,2.758144,0
15.11975,-9.321222,2.624855,0
15.11975,-9.321222,2.491852,0
15.11972,-9.321236,2.359121,0
15.11975,-9.321222,2.226648,0
15.11972,-9.321236,2.094421,0
15.11975,-9.321222,1.96242,0
15.11975,-9.321222,1.830635,0
15.11975,-9.321222,1.699049,0
15.11975,-9.321222,1.567644,0
15.11975,-9.321222,1.436413,0
15.11975,-9.321222,1.305336,0
15.11975,-9.321222,1.174404,0
15.11975,-9.321222,1.043594,0
15.11975,-9.321222,0.912899,0
15.11975,-9.321222,0.7823009,0
15.11972,-9.321236,0.6517925,0
15.11975,-9.321222,0.521347,0
15.11975,-9.321222,0.3909626,0
15.11975,-9.321222,0.2606201,0
15.11975,-9.321222,0.1302986,0
15.11975,-9.321222,-1.907349E-06,0
15.11975,-9.321222,-0.1303043,0
15.11975,-9.321222,-0.2606201,0
15.11969,-9.321182,-0.3909626,0
15.11969,-9.321182,-0.521349,0
15.11969,-9.321182,-0.6517906,0
15.11969,-9.321182,-0.7823029,0
15.11969,-9.321182,-0.912899,0
14.70129,-9.063219,-1.014715,0
13.63785,-8.407646,-1.059303,0
12.71705,-7.839975,-1.09791,0
11.79016,-7.268533,-1.120096,0
11.02923,-6.799459,-1.143536,0
10.49221,-6.468379,-1.179041,0
9.97216,-6.147785,-1.20739,0
9.482552,-5.845915,-1.230761,0
9.3598,-5.770254,-1.296541,0
9.359774,-5.770269,-1.378397,0
8.941675,-5.512486,-1.395166,0
8.520395,-5.252752,-1.40423,0
8.136311,-5.015982,-1.412497,0
7.784559,-4.799122,-1.420065,0
7.46129,-4.599825,-1.427023,0
7.163126,-4.41604,-1.433439,0
6.887214,-4.245914,-1.439377,0
6.631129,-4.088059,-1.444887,0
6.392776,-3.941115,-1.450018,0
6.170339,-3.803985,-1.454803,0
5.96228,-3.6757,-1.45928,0
5.767237,-3.555475,-1.46348,0
5.583948,-3.442467,-1.467422,0
5.411436,-3.336096,-1.471134,0
15.06137,-9.321557,4.236073,0
15.06137,-9.321557,4.098942,0
15.06137,-9.321557,3.962275,0
15.06137,-9.321557,3.826057,0
15.06137,-9.321557,3.690269,0
15.06137,-9.321557,3.554897,0
15.06137,-9.321557,3.419924,0
15.06137,-9.321557,3.28533,0
15.06137,-9.321557,3.151104,0
15.06137,-9.321557,3.017229,0
15.06137,-9.321557,2.883684,0
15.06137,-9.321557,2.750462,0
15.06137,-9.321557,2.61754,0
15.06137,-9.321557,2.484905,0
15.06137,-9.321557,2.352549,0
15.06137,-9.321557,2.220446,0
15.06137,-9.321557,2.088585,0
15.06137,-9.321557,1.956955,0
15.06137,-9.321557,1.825533,0
15.06137,-9.321557,1.694317,0
15.06137,-9.321557,1.563278,0
15.06137,-9.321557,1.432411,0
15.06137,-9.321557,1.301701,0
15.06137,-9.321557,1.171131,0
15.06137,-9.321557,1.040688,0
15.06137,-9.321557,0.9103565,0
15.06137,-9.321557,0.7801228,0
15.06137,-9.321557,0.6499729,0
15.06137,-9.321557,0.5198956,0
15.06137,-9.321557,0.3898716,0
15.06137,-9.321557,0.2598877,0
15.06137,-9.321557,0.1299324,0
15.06137,-9.321557,-1.907349E-06,0
15.06137,-9.321557,-0.12994,0
15.06134,-9.321504,-0.2598934,0
15.06134,-9.321504,-0.3898735,0
15.06134,-9.321504,-0.5198956,0
15.06134,-9.321504,-0.6499729,0
15.06134,-9.321504,-0.7801247,0
15.06134,-9.321504,-0.9103565,0
14.67923,-9.085045,-1.014284,0
13.61782,-8.428158,-1.058887,0
12.6987,-7.859294,-1.097509,0
11.7814,-7.291595,-1.120474,0
11.01098,-6.81476,-1.142876,0
10.47936,-6.485741,-1.178867,0
9.957811,-6.162906,-1.206953,0
9.470535,-5.861362,-1.23053,0
9.323281,-5.77021,-1.292879,0
9.323281,-5.77021,-1.374504,0
8.931456,-5.527719,-1.395069,0
8.510668,-5.2673,-1.404139,0
8.126995,-5.029818,-1.412409,0
7.775717,-4.812423,-1.419981,0
7.452868,-4.61262,-1.426941,0
7.15501,-4.42825,-1.433359,0
6.879439,-4.25773,-1.439301,0
6.62361,-4.099388,-1.444815,0
6.385571,-3.952064,-1.449945,0
6.163395,-3.814583,-1.454733,0
5.955597,-3.685947,-1.459215,0
5.760757,-3.565332,-1.463413,0
5.577705,-3.452057,-1.46736,0
5.405403,-3.345433,-1.471073,0
15.00331,-9.321854,4.224314,0
15.00331,-9.321854,4.087566,0
15.00331,-9.321854,3.951277,0
15.00331,-9.321854,3.815439,0
15.00331,-9.321854,3.680029,0
15.00331,-9.321854,3.545033,0
15.00331,-9.321854,3.410431,0
15.00331,-9.321854,3.276213,0
15.00331,-9.321854,3.142357,0
15.00331,-9.321854,3.008852,0
15.00331,-9.321854,2.875681,0
15.00331,-9.321854,2.742825,0
15.00331,-9.321854,2.610275,0
15.00328,-9.321869,2.47801,0
15.00331,-9.321854,2.34602,0
15.00328,-9.321869,2.214283,0
15.00331,-9.321854,2.08279,0
15.00331,-9.321854,1.951521,0
15.00331,-9.321854,1.820469,0
15.00331,-9.321854,1.689613,0
15.00331,-9.321854,1.558939,0
15.00331,-9.321854,1.428438,0
15.00331,-9.321854,1.298088,0
15.00331,-9.321854,1.167883,0
15.00331,-9.321854,1.0378,0
15.00331,-9.321854,0.9078293,0
15.00331,-9.321854,0.7779579,0
15.00331,-9.321854,0.6481705,0
15.00331,-9.321854,0.5184517,0
15.00331,-9.321854,0.3887882,0
15.00331,-9.321854,0.2591705,0
15.00331,-9.321854,0.12957,0
15.00331,-9.321854,-1.907349E-06,0
15.00331,-9.321854,-0.1295795,0
15.00328,-9.321869,-0.2591724,0
15.00328,-9.321869,-0.388792,0
15.00328,-9.321869,-0.5184536,0
15.00328,-9.321869,-0.6481724,0
15.00328,-9.321869,-0.7779579,0
15.00328,-9.321869,-0.9078274,0
14.65722,-9.106843,-1.013861,0
13.59779,-8.448602,-1.058474,0
12.68038,-7.878598,-1.097109,0
11.77262,-7.31459,-1.120853,0
10.9927,-6.830007,-1.142216,0
10.46648,-6.50305,-1.178696,0
9.943464,-6.178096,-1.206518,0
9.458489,-5.876758,-1.230295,0
9.287039,-5.770226,-1.289242,0
9.287039,-5.770226,-1.370638,0
8.921179,-5.542914,-1.394974,0
8.500914,-5.281794,-1.404047,0
8.11771,-5.043708,-1.412321,0
7.766849,-4.825738,-1.419895,0
7.444359,-4.625322,-1.426859,0
7.146896,-4.440528,-1.433281,0
6.871635,-4.269492,-1.439224,0
6.616147,-4.110755,-1.444742,0
6.37834,-3.963027,-1.449873,0
6.156421,-3.825127,-1.454664,0
5.948885,-3.696141,-1.459146,0
5.754282,-3.575258,-1.46335,0
5.571436,-3.461661,-1.467297,0
5.399342,-3.354716,-1.471014,0
14.94558,-9.322182,4.212635,0
14.94558,-9.322182,4.076262,0
14.94558,-9.322182,3.940351,0
14.94558,-9.322182,3.804892,0
14.94558,-9.322182,3.669855,0
14.94558,-9.322182,3.535231,0
14.94558,-9.322182,3.401003,0
14.94558,-9.322182,3.267155,0
14.94558,-9.322182,3.133669,0
14.94558,-9.322182,3.000536,0
14.94558,-9.322182,2.867731,0
14.94558,-9.322182,2.735243,0
14.94558,-9.322182,2.603058,0
14.94558,-9.322182,2.471161,0
14.94558,-9.322182,2.339533,0
14.94558,-9.322182,2.20816,0
14.94558,-9.322182,2.07703,0
14.94558,-9.322182,1.946129,0
14.94558,-9.322182,1.815435,0
14.94558,-9.322182,1.684942,0
14.94558,-9.322182,1.554628,0
14.94558,-9.322182,1.424486,0
14.94558,-9.322182,1.294502,0
14.94558,-9.322182,1.16465,0
14.94558,-9.322182,1.034931,0
14.94558,-9.322182,0.9053192,0
14.94558,-9.322182,0.7758083,0
14.94558,-9.322182,0.6463776,0
14.94558,-9.322182,0.5170193,0
14.94558,-9.322182,0.3877144,0
14.94558,-9.322182,0.2584515,0
14.94558,-9.322182,0.129221,0
14.94558,-9.322182,-1.907349E-06,0
14.94558,-9.322182,-0.129221,0
14.94555,-9.322196,-0.2584553,0
14.94555,-9.322196,-0.3877163,0
14.94555,-9.322196,-0.5170193,0
14.94555,-9.322196,-0.6463776,0
14.94555,-9.322196,-0.7758064,0
14.94555,-9.322196,-0.9053192,0
14.63513,-9.128548,-1.013435,0
13.57773,-8.468992,-1.058064,0
12.66202,-7.897849,-1.096712,0
11.76383,-7.337599,-1.121233,0
10.97448,-6.845224,-1.141558,0
10.4536,-6.520359,-1.178522,0
9.929059,-6.193178,-1.206083,0
9.446445,-5.892151,-1.230064,0
9.250928,-5.770168,-1.285629,0
9.250928,-5.770168,-1.366796,0
8.910845,-5.558071,-1.394878,0
8.491131,-5.296302,-1.403955,0
8.108396,-5.057545,-1.412233,0
7.757922,-4.838947,-1.419811,0
7.435824,-4.638039,-1.426777,0
7.138754,-4.452753,-1.433203,0
6.863804,-4.281268,-1.43915,0
6.608628,-4.122083,-1.444666,0
6.371105,-3.973921,-1.449804,0
6.149448,-3.835671,-1.454596,0
5.942145,-3.706348,-1.45908,0
5.747776,-3.58513,-1.463285,0
5.565137,-3.471212,-1.467234,0
5.393223,-3.36396,-1.470953,0
14.88818,-9.322536,4.201033,0
14.88818,-9.322536,4.065031,0
14.88818,-9.322536,3.929506,0
14.88818,-9.322536,3.794407,0
14.88818,-9.322536,3.659748,0
14.88818,-9.322536,3.525488,0
14.88818,-9.322536,3.391634,0
14.88818,-9.322536,3.258146,0
14.88818,-9.322536,3.125029,0
14.88818,-9.322536,2.992266,0
14.88818,-9.322536,2.859831,0
14.88818,-9.322536,2.727707,0
14.88818,-9.322536,2.595884,0
14.88818,-9.322536,2.46434,0
14.88818,-9.322536,2.333086,0
14.88818,-9.322536,2.202082,0
14.88818,-9.322536,2.07131,0
14.88818,-9.322536,1.940769,0
14.88818,-9.322536,1.810431,0
14.88818,-9.322536,1.680304,0
14.88818,-9.322536,1.550344,0
14.88818,-9.322536,1.420568,0
14.88818,-9.322536,1.290922,0
14.88818,-9.322536,1.161434,0
14.88818,-9.322536,1.032074,0
14.88818,-9.322536,0.9028206,0
14.88818,-9.322536,0.7736645,0
14.88818,-9.322536,0.6445942,0
14.88818,-9.322536,0.5155907,0
14.88818,-9.322536,0.3866405,0
14.88818,-9.322536,0.2577362,0
14.88818,-9.322536,0.1288605,0
14.88818,-9.322536,-1.907349E-06,0
14.88815,-9.322483,-0.1288643,0
14.88815,-9.322483,-0.2577419,0
14.88815,-9.322483,-0.3866482,0
14.88815,-9.322483,-0.5155945,0
14.88815,-9.322483,-0.644598,0
14.88815,-9.322483,-0.7736721,0
14.88813,-9.322496,-0.9028244,0
14.61309,-9.150291,-1.01301,0
13.5577,-8.489436,-1.057653,0
12.64364,-7.917048,-1.096315,0
11.755,-7.360621,-1.121611,0
10.95622,-6.860456,-1.140905,0
10.44069,-6.537614,-1.17835,0
9.91471,-6.2083,-1.205652,0
9.434399,-5.907547,-1.229832,0
9.215067,-5.770183,-1.28204,0
9.215067,-5.770183,-1.36298,0
8.900568,-5.573266,-1.394785,0
8.481319,-5.310757,-1.403866,0
8.099054,-5.071396,-1.412146,0
7.749023,-4.852208,-1.419727,0
7.427317,-4.65074,-1.426697,0
7.130555,-4.464938,-1.433125,0
6.855944,-4.292991,-1.439074,0
6.601053,-4.133373,-1.444593,0
6.363844,-3.984831,-1.449736,0
6.142475,-3.846216,-1.454529,0
5.935406,-3.716557,-1.459015,0
5.741244,-3.595017,-1.463221,0
5.558839,-3.480762,-1.467173,0
5.387135,-3.373257,-1.470892,0
14.83108,-9.322868,4.189508,0
14.83108,-9.322868,4.053892,0
14.83108,-9.322868,3.918718,0
14.83108,-9.322868,3.783991,0
14.83105,-9.322815,3.649694,0
14.83108,-9.322868,3.515821,0
14.83108,-9.322868,3.382332,0
14.83108,-9.322868,3.249212,0
14.83108,-9.322868,3.116468,0
14.83108,-9.322868,2.98407,0
14.83108,-9.322868,2.851992,0
14.83108,-9.322868,2.720228,0
14.83108,-9.322868,2.588768,0
14.83108,-9.322868,2.45759,0
14.83108,-9.322868,2.326687,0
14.83105,-9.322815,2.196037,0
14.83108,-9.322868,2.065622,0
14.83108,-9.322868,1.935442,0
14.83108,-9.322868,1.805464,0
14.83108,-9.322868,1.675692,0
14.83108,-9.322868,1.546097,0
14.83108,-9.322868,1.416662,0
14.83105,-9.322815,1.287382,0
14.83108,-9.322868,1.158251,0
14.83105,-9.322815,1.029247,0
14.83105,-9.322815,0.9003525,0
14.83108,-9.322868,0.7715378,0
14.83108,-9.322868,0.6428299,0
14.83108,-9.322868,0.514183,0
14.83108,-9.322868,0.3855839,0
14.83108,-9.322868,0.2570324,0
14.83108,-9.322868,0.1285114,0
14.83105,-9.322815,-1.907349E-06,0
14.83105,-9.322815,-0.1285114,0
14.83105,-9.322815,-0.2570362,0
14.83105,-9.322815,-0.3855877,0
14.83105,-9.322815,-0.5141811,0
14.83105,-9.322815,-0.6428299,0
14.83105,-9.322815,-0.7715473,0
14.83105,-9.322815,-0.9003487,0
14.591,-9.171929,-1.01259,0
13.53763,-8.509758,-1.057245,0
12.62526,-7.936244,-1.095921,0
11.74607,-7.383636,-1.121992,0
10.93797,-6.87562,-1.140253,0
10.42773,-6.554898,-1.178181,0
9.900331,-6.223367,-1.205221,0
9.422324,-5.922887,-1.229603,0
9.179369,-5.770179,-1.278475,0
9.179369,-5.770179,-1.35919,0
8.890179,-5.588384,-1.39469,0
8.471508,-5.325212,-1.403776,0
8.08971,-5.085178,-1.412058,0
7.740125,-4.86547,-1.419643,0
7.41878,-4.663456,-1.426617,0
7.122383,-4.477109,-1.433048,0
6.848084,-4.304714,-1.438997,0
6.593534,-4.144701,-1.444521,0
6.356585,-3.995741,-1.449663,0
6.135474,-3.856774,-1.454462,0
5.928639,-3.72678,-1.458948,0
5.734709,-3.604836,-1.463156,0
5.552514,-3.490328,-1.46711,0
5.38099,-3.382515,-1.470831,0
14.77431,-9.32316,4.178057,0
14.77431,-9.32316,4.042799,0
14.77431,-9.32316,3.908003,0
14.77431,-9.32316,3.773655,0
14.77431,-9.32316,3.639732,0
14.77431,-9.32316,3.50622,0
14.77431,-9.32316,3.373083,0
14.77431,-9.32316,3.240335,0
14.77428,-9.323175,3.107944,0
14.77431,-9.32316,2.975899,0
14.77431,-9.32316,2.844194,0
14.77431,-9.32316,2.712782,0
14.77431,-9.32316,2.581682,0
14.77431,-9.32316,2.450884,0
14.77431,-9.32316,2.320328,0
14.77431,-9.32316,2.190029,0
14.77431,-9.32316,2.059982,0
14.77431,-9.32316,1.930151,0
14.77431,-9.32316,1.800535,0
14.77431,-9.32316,1.67111,0
14.77431,-9.32316,1.541868,0
14.77428,-9.323175,1.412794,0
14.77428,-9.323175,1.283861,0
14.77428,-9.323175,1.155083,0
14.77431,-9.32316,1.026432,0
14.77431,-9.32316,0.8978958,0
14.77431,-9.32316,0.7694397,0
14.77428,-9.323175,0.6410751,0
14.77431,-9.32316,0.5127792,0
14.77431,-9.32316,0.3845234,0
14.77431,-9.32316,0.2563362,0
14.77428,-9.323175,0.1281624,0
14.77431,-9.32316,-1.907349E-06,0
14.77428,-9.323175,-0.1281605,0
14.77428,-9.323175,-0.2563343,0
14.77428,-9.323175,-0.3845348,0
14.77425,-9.323122,-0.5127754,0
14.77425,-9.323122,-0.6410732,0
14.77425,-9.323122,-0.7694397,0
14.77425,-9.323122,-0.8978882,0
14.56893,-9.193551,-1.012171,0
13.51754,-8.530095,-1.056837,0
12.60687,-7.955442,-1.095528,0
11.73716,-7.406635,-1.12237,0
10.91974,-6.89077,-1.139603,0
10.41476,-6.572115,-1.178011,0
9.885923,-6.238381,-1.204792,0
9.410193,-5.93819,-1.229374,0
9.143861,-5.770141,-1.274933,0
9.143861,-5.770141,-1.355425,0
8.879846,-5.60354,-1.394596,0
8.461639,-5.339628,-1.403685,0
8.080313,-5.09899,-1.411972,0
7.731142,-4.87864,-1.419561,0
7.410217,-4.676119,-1.426537,0
7.114157,-4.489309,-1.43297,0
6.840224,-4.316437,-1.438925,0
6.585933,-4.156005,-1.444448,0
6.349297,-4.006664,-1.449594,0
6.128445,-3.86728,-1.454393,0
5.921844,-3.736949,-1.458883,0
5.728177,-3.614722,-1.463093,0
5.546189,-3.499893,-1.467049,0
5.374871,-3.391759,-1.47077,0
14.71781,-9.323442,4.166685,0
14.71781,-9.323442,4.031801,0
14.71781,-9.323442,3.897364,0
14.71781,-9.323442,3.763384,0
14.71781,-9.323442,3.62982,0
14.71781,-9.323442,3.496664,0
14.71781,-9.323442,3.363897,0
14.71781,-9.323442,3.231512,0
14.71781,-9.323442,3.09948,0
14.71781,-9.323442,2.9678,0
14.71781,-9.323442,2.836439,0
14.71781,-9.323442,2.705408,0
14.71781,-9.323442,2.574663,0
14.71781,-9.323442,2.444201,0
14.71781,-9.323442,2.314005,0
14.71781,-9.323442,2.184069,0
14.71781,-9.323442,2.054369,0
14.71781,-9.323442,1.924892,0
14.71781,-9.323442,1.795628,0
14.71781,-9.323442,1.666555,0
14.71781,-9.323442,1.537676,0
14.71781,-9.323442,1.408943,0
14.71781,-9.323442,1.280376,0
14.71781,-9.323442,1.151941,0
14.71781,-9.323442,1.023636,0
14.71784,-9.323496,0.8954449,0
14.71784,-9.323496,0.767334,0
14.71781,-9.323442,0.6393299,0
14.71781,-9.323442,0.5113735,0
14.71781,-9.323442,0.3834858,0
14.71781,-9.323442,0.2556267,0
14.71781,-9.323442,0.1278095,0
14.71781,-9.323442,0,0
14.71781,-9.323442,-0.1278095,0
14.71781,-9.323442,-0.2556362,0
14.71781,-9.323442,-0.3834858,0
14.71778,-9.323458,-0.5113792,0
14.71778,-9.323458,-0.639328,0
14.71778,-9.323458,-0.7673435,0
14.71778,-9.323458,-0.895443,0
14.54687,-9.215174,-1.011751,0
13.49748,-8.550417,-1.056433,0
12.58846,-7.974586,-1.095135,0
11.7282,-7.429595,-1.122751,0
10.90152,-6.905919,-1.138956,0
10.4018,-6.589331,-1.177841,0
9.871489,-6.25341,-1.204363,0
9.398064,-5.953491,-1.229143,0
9.108599,-5.770108,-1.271416,0
9.108599,-5.770108,-1.351685,0
8.869456,-5.618657,-1.394503,0
8.451773,-5.354044,-1.403597,0
8.070915,-5.112803,-1.411886,0
7.722188,-4.891862,-1.419477,0
7.401625,-4.688797,-1.426458,0
7.105958,-4.501495,-1.432894,0
6.832337,-4.328174,-1.43885,0
6.578384,-4.16728,-1.44438,0
6.34198,-4.017535,-1.449524,0
6.121389,-3.8778,-1.454325,0
5.915076,-3.747104,-1.458818,0
5.721615,-3.624556,-1.46303,0
5.539834,-3.509405,-1.466986,0
5.368753,-3.401003,-1.470713,0
14.66161,-9.323771,4.155382,0
14.66164,-9.323824,4.020857,0
14.66164,-9.323824,3.886797,0
14.66167,-9.323809,3.753172,0
14.66164,-9.323755,3.61997,0
14.66167,-9.323809,3.487177,0
14.66161,-9.323771,3.354778,0
14.66167,-9.323809,3.222742,0
14.66167,-9.323809,3.091085,0
14.66164,-9.323824,2.959749,0
14.66167,-9.323809,2.828756,0
14.66164,-9.323824,2.698065,0
14.66167,-9.323809,2.567669,0
14.66167,-9.323809,2.437567,0
14.66164,-9.323824,2.307732,0
14.66164,-9.323755,2.178146,0
14.66164,-9.323824,2.048796,0
14.66167,-9.323809,1.919685,0
14.66161,-9.323771,1.790752,0
14.66164,-9.323824,1.662043,0
14.66167,-9.323809,1.533504,0
14.66164,-9.323755,1.405119,0
14.66167,-9.323809,1.276905,0
14.66167,-9.323809,1.148817,0
14.66167,-9.323809,1.020859,0
14.66167,-9.323809,0.8930206,0
14.66164,-9.323824,0.7652607,0
14.66164,-9.323824,0.6375942,0
14.66161,-9.323771,0.5099812,0
14.66164,-9.323824,0.3824444,0
14.66167,-9.323809,0.2549419,0
14.66164,-9.323824,0.1274605,0
14.66164,-9.323755,-1.907349E-06,0
14.66164,-9.323755,-0.1274643,0
14.66161,-9.323771,-0.2549419,0
14.66161,-9.323771,-0.3824463,0
14.66161,-9.323771,-0.5099926,0
14.66161,-9.323771,-0.6375942,0
14.66161,-9.323771,-0.7652626,0
14.66161,-9.323771,-0.8930149,0
14.52477,-9.236742,-1.011335,0
13.47735,-8.570633,-1.056028,0
12.57002,-7.993676,-1.094744,0
11.71918,-7.452584,-1.123131,0
10.88329,-6.921001,-1.138311,0
10.38881,-6.606562,-1.177673,0
9.85708,-6.268424,-1.203936,0
9.385906,-5.968809,-1.228916,0
9.073502,-5.770123,-1.267921,0
9.073502,-5.770123,-1.347969,0
8.859039,-5.633721,-1.394411,0
8.441904,-5.368461,-1.403507,0
8.061488,-5.126561,-1.411802,0
7.713177,-4.905046,-1.419397,0
7.393006,-4.70142,-1.426378,0
7.097704,-4.513641,-1.432817,0
6.824421,-4.339858,-1.438778,0
6.570754,-4.17853,-1.444307,0
6.334662,-4.028406,-1.449455,0
6.11436,-3.888305,-1.45426,0
5.908225,-3.757234,-1.458754,0
5.715025,-3.634335,-1.462967,0
5.53348,-3.518916,-1.466925,0
5.362579,-3.410208,-1.470652,0
14.60577,-9.324112,4.144156,0
14.60577,-9.324112,4.009993,0
14.60577,-9.324112,3.876291,0
14.60577,-9.324112,3.743031,0
14.60577,-9.324112,3.610188,0
14.60577,-9.324112,3.477758,0
14.60577,-9.324112,3.345724,0
14.60577,-9.324112,3.214043,0
14.60577,-9.324112,3.082727,0
14.60577,-9.324112,2.951757,0
14.60577,-9.324112,2.821108,0
14.60577,-9.324112,2.690775,0
14.60577,-9.324112,2.560743,0
14.60577,-9.324112,2.430979,0
14.60577,-9.324112,2.301495,0
14.60577,-9.324112,2.172262,0
14.60577,-9.324112,2.043253,0
14.60577,-9.324112,1.91448,0
14.60577,-9.324112,1.785915,0
14.60577,-9.324112,1.657537,0
14.60577,-9.324112,1.529358,0
14.60579,-9.324098,1.401329,0
14.60579,-9.324098,1.273458,0
14.60579,-9.324098,1.145716,0
14.60577,-9.324112,1.018099,0
14.60577,-9.324112,0.8905964,0
14.60577,-9.324112,0.7631893,0
14.60579,-9.324098,0.6358738,0
14.60577,-9.324112,0.5086136,0
14.60577,-9.324112,0.3814182,0
14.60577,-9.324112,0.2542477,0
14.60577,-9.324112,0.1271172,0
14.60577,-9.324112,0,0
14.60577,-9.324112,-0.127121,0
14.60577,-9.324112,-0.2542534,0
14.60577,-9.324112,-0.3814144,0
14.60577,-9.324112,-0.5086155,0
14.60577,-9.324112,-0.6358719,0
14.60577,-9.324112,-0.7631969,0
14.60574,-9.324059,-0.8906021,0
14.50265,-9.258257,-1.01092,0
13.45723,-8.590916,-1.055624,0
12.55157,-8.012766,-1.094355,0
11.71011,-7.475535,-1.123512,0
10.86506,-6.936082,-1.137669,0
10.37576,-6.623754,-1.177504,0
9.842645,-6.283385,-1.20351,0
9.373745,-5.984056,-1.228687,0
9.038595,-5.770105,-1.26445,0
9.038595,-5.770105,-1.344278,0
8.848623,-5.648853,-1.39432,0
8.431953,-5.382852,-1.403419,0
8.052063,-5.14032,-1.411718,0
7.704168,-4.91823,-1.419315,0
7.384414,-4.714097,-1.4263,0
7.089449,-4.525788,-1.432741,0
6.816478,-4.351556,-1.438704,0
6.563123,-4.189781,-1.444237,0
6.327319,-4.039291,-1.449387,0
6.107248,-3.898786,-1.454193,0
5.901429,-3.767403,-1.458689,0
5.708437,-3.644183,-1.462904,0
5.527126,-3.528428,-1.466867,0
5.356434,-3.419466,-1.470594,0
14.55023,-9.324429,4.132994,0
14.55023,-9.324429,3.999203,0
14.55023,-9.324429,3.865864,0
14.55023,-9.324429,3.732965,0
14.55023,-9.324429,3.600473,0
14.55023,-9.324429,3.468393,0
14.55023,-9.324429,3.336702,0
14.55023,-9.324429,3.205393,0
14.55023,-9.324429,3.07443,0
14.55023,-9.324429,2.943808,0
14.55023,-9.324429,2.813513,0
14.55023,-9.324429,2.683531,0
14.55023,-9.324429,2.553846,0
14.55023,-9.324429,2.424429,0
14.55023,-9.324429,2.295294,0
14.55023,-9.324429,2.16641,0
14.55023,-9.324429,2.037769,0
14.55023,-9.324429,1.909342,0
14.55023,-9.324429,1.781115,0
14.55023,-9.324429,1.65308,0
14.55023,-9.324429,1.525236,0
14.55023,-9.324429,1.397562,0
14.55023,-9.324429,1.270027,0
14.55023,-9.324429,1.142633,0
14.55023,-9.324429,1.015366,0
14.55023,-9.324429,0.8882046,0
14.55023,-9.324429,0.7611427,0
14.55023,-9.324429,0.6341591,0
14.55023,-9.324429,0.507246,0
14.55023,-9.324429,0.3803902,0
14.55023,-9.324429,0.2535686,0
14.55023,-9.324429,0.1267662,0
14.55023,-9.324429,0,0
14.55023,-9.324429,-0.1267796,0
14.55023,-9.324429,-0.2535686,0
14.55023,-9.324429,-0.3803864,0
14.55023,-9.324429,-0.507246,0
14.5502,-9.324444,-0.634161,0
14.5502,-9.324375,-0.7611408,0
14.55017,-9.32439,-0.8882046,0
14.48052,-9.279772,-1.010506,0
13.43714,-8.611116,-1.055223,0
12.53313,-8.031788,-1.093966,0
11.701,-7.4985,-1.123894,0
10.84683,-6.951096,-1.13703,0
10.36271,-6.640877,-1.177336,0
9.828207,-6.298345,-1.203087,0
9.361587,-5.999305,-1.228462,0
9.003908,-5.770105,-1.261,0
9.003908,-5.770105,-1.340612,0
8.838175,-5.663864,-1.394228,0
8.422057,-5.397215,-1.403332,0
8.042579,-5.15404,-1.411633,0
7.695128,-4.931361,-1.419235,0
7.375738,-4.726683,-1.426222,0
7.081138,-4.537896,-1.432665,0
6.808532,-4.363187,-1.438631,0
6.555491,-4.201031,-1.444166,0
6.319974,-4.050108,-1.44932,0
6.100162,-3.909252,-1.454128,0
5.894605,-3.777519,-1.458628,0
5.701819,-3.653977,-1.462843,0
5.520716,-3.537901,-1.466806,0
5.350205,-3.428632,-1.470535,0
14.49495,-9.324736,4.121922,0
14.49495,-9.324736,3.988478,0
14.49495,-9.324736,3.855494,0
14.49495,-9.324736,3.722948,0
14.49495,-9.324736,3.590822,0
14.49495,-9.324736,3.459105,0
14.49495,-9.324736,3.327761,0
14.49495,-9.324736,3.196795,0
14.49495,-9.324736,3.066187,0
14.49495,-9.324736,2.935919,0
14.49495,-9.324736,2.805971,0
14.49495,-9.324736,2.67634,0
14.49495,-9.324736,2.547007,0
14.49495,-9.324736,2.41794,0
14.49495,-9.324736,2.289139,0
14.49495,-9.324736,2.160608,0
14.49495,-9.324736,2.032303,0
14.49495,-9.324736,1.904211,0
14.49495,-9.324736,1.776337,0
14.49495,-9.324736,1.648663,0
14.49495,-9.324736,1.521143,0
14.49495,-9.324736,1.393806,0
14.49495,-9.324736,1.266624,0
14.49495,-9.324736,1.139566,0
14.49495,-9.324736,1.01264,0
14.49495,-9.324736,0.8858204,0
14.49495,-9.324736,0.7591019,0
14.49495,-9.324736,0.6324577,0
14.49495,-9.324736,0.5058861,0
14.49495,-9.324736,0.3793602,0
14.49495,-9.324736,0.2528934,0
14.49495,-9.324736,0.1264362,0
14.49495,-9.324736,-1.907349E-06,0
14.49495,-9.324736,-0.1264381,0
14.49495,-9.324736,-0.2528877,0
14.49495,-9.324736,-0.3793678,0
14.49495,-9.324736,-0.5058861,0
14.49495,-9.324736,-0.6324596,0
14.49492,-9.324682,-0.7591,0
14.49492,-9.324682,-0.8858242,0
14.45842,-9.301205,-1.010092,0
13.41699,-8.631277,-1.054827,0
12.51469,-8.05081,-1.09358,0
11.69185,-7.521494,-1.124273,0
10.82857,-6.966123,-1.136393,0
10.34964,-6.658014,-1.17717,0
9.813741,-6.313252,-1.202665,0
9.34937,-6.014514,-1.228237,0
8.969384,-5.770087,-1.257574,0
8.969384,-5.770087,-1.336969,0
8.827703,-5.678957,-1.394136,0
8.412077,-5.411553,-1.403242,0
8.033096,-5.167759,-1.411549,0
7.686063,-4.944505,-1.419153,0
7.367091,-4.739321,-1.426144,0
7.072857,-4.550056,-1.432592,0
6.80059,-4.374886,-1.438559,0
