16.87608,-9.311284,-1.907349E-06,0
16.87608,-9.311284,-0.1413975,0
16.87608,-9.311284,-0.2828083,0
16.87608,-9.311284,-0.4242516,0
16.87608,-9.311284,-0.5657387,0
16.87608,-9.311284,-0.7072887,0
16.87608,-9.311284,-0.8489132,0
16.61756,-9.168659,-0.9754543,0
15.30701,-8.44558,-1.027163,0
14.18717,-7.827705,-1.071344,0
13.19601,-7.280802,-1.107595,0
12.09755,-6.674774,-1.117361,0
11.53535,-6.36458,-1.162773,0
10.90333,-6.015837,-1.191193,0
10.45891,-5.770663,-1.231129,0
10.45891,-5.770663,-1.319757,0
10.20763,-5.632015,-1.374691,0
9.695633,-5.349512,-1.388176,0
9.216197,-5.084985,-1.398035,0
8.781137,-4.844929,-1.406984,0
8.384525,-4.62611,-1.41514,0
8.021452,-4.42578,-1.422607,0
7.687769,-4.241684,-1.429472,0
7.380022,-4.071881,-1.435801,0
7.095315,-3.914823,-1.441656,0
6.831053,-3.769002,-1.44709,0
6.585178,-3.633317,-1.45215,0
6.355741,-3.506746,-1.456867,0
6.141124,-3.388363,-1.461281,0
5.939959,-3.277313,-1.465418,0
5.750971,-3.173043,-1.469307,0
5.573044,-3.074908,-1.472963,0
16.8074,-9.311671,4.595263,0
16.8074,-9.311671,4.446495,0
16.8074,-9.311671,4.298248,0
16.8074,-9.311671,4.150476,0
16.8074,-9.311671,4.003176,0
16.8074,-9.311671,3.856319,0
16.8074,-9.311671,3.7099,0
16.80738,-9.311686,3.563898,0
16.8074,-9.311671,3.418289,0
16.8074,-9.311671,3.273069,0
16.80738,-9.311686,3.128195,0
16.8074,-9.311671,2.983669,0
16.8074,-9.311671,2.839489,0
16.80738,-9.311686,2.695612,0
16.8074,-9.311671,2.552025,0
16.80738,-9.311686,2.408722,0
16.80738,-9.311686,2.265684,0
16.8074,-9.311671,2.122883,0
16.80738,-9.311686,1.980326,0
16.80738,-9.311686,1.83798,0
16.8074,-9.311671,1.695826,0
16.8074,-9.311671,1.553864,0
16.8074,-9.311671,1.412071,0
16.8074,-9.311671,1.270435,0
16.80738,-9.311686,1.128929,0
16.80738,-9.311686,0.9875469,0
16.8074,-9.311671,0.8462753,0
16.80738,-9.311686,0.7050877,0
16.80738,-9.311686,0.5639763,0
16.8074,-9.311671,0.4229317,0
16.80738,-9.311686,0.2819233,0
16.80738,-9.311686,0.1409492,0
16.8074,-9.311671,-1.907349E-06,0
16.80738,-9.311686,-0.1409588,0
16.80738,-9.311686,-0.281929,0
16.80738,-9.311686,-0.4229317,0
16.80738,-9.311686,-0.5639782,0
16.80738,-9.311686,-0.7050877,0
16.80738,-9.311686,-0.8462715,0
16.5933,-9.193077,-0.9749699,0
15.28523,-8.468367,-1.026691,0
14.1675,-7.849133,-1.07089,0
13.1881,-7.306524,-1.108002,0
12.07796,-6.691502,-1.116629,0
11.51702,-6.38069,-1.162045,0
10.88835,-6.032415,-1.190701,0
10.41587,-5.770632,-1.227247,0
10.41587,-5.770632,-1.315596,0
10.19817,-5.650037,-1.374743,0
9.685511,-5.366013,-1.38806,0
9.206593,-5.100648,-1.397924,0
8.772029,-4.859905,-1.406878,0
8.375856,-4.640429,-1.415039,0
8.013143,-4.439486,-1.42251,0
7.67985,-4.254829,-1.429377,0
7.372439,-4.084496,-1.435709,0
7.088041,-3.92692,-1.441568,0
6.824095,-3.78072,-1.447006,0
6.57845,-3.644631,-1.452066,0
6.349244,-3.517656,-1.456789,0
6.134887,-3.398853,-1.461203,0
5.933931,-3.287551,-1.465345,0
5.74515,-3.182959,-1.469233,0
5.56743,-3.084502,-1.472895,0
16.73908,-9.312073,4.581018,0
16.73908,-9.312073,4.432726,0
16.73908,-9.312073,4.284929,0
16.73908,-9.312073,4.137617,0
16.73908,-9.312073,3.990774,0
16.73908,-9.312073,3.844381,0
16.73908,-9.312073,3.698406,0
16.73908,-9.312073,3.552866,0
16.73908,-9.312073,3.407698,0
16.73908,-9.312073,3.26293,0
16.73908,-9.312073,3.118513,0
16.73908,-9.312073,2.974432,0
16.73908,-9.312073,2.830687,0
16.73908,-9.312073,2.687254,0
16.73908,-9.312073,2.544115,0
16.73908,-9.312073,2.401258,0
16.73908,-9.312073,2.258665,0
16.73908,-9.312073,2.116302,0
16.73908,-9.312073,1.974194,0
16.73908,-9.312073,1.832281,0
16.73908,-9.312073,1.690577,0
16.73908,-9.312073,1.549055,0
16.73908,-9.312073,1.4077,0
16.73908,-9.312073,1.266495,0
16.73908,-9.312073,1.125433,0
16.73908,-9.312073,0.9844933,0
16.73908,-9.312073,0.8436489,0
16.73908,-9.312073,0.7028942,0
16.73911,-9.312058,0.5622292,0
16.73908,-9.312073,0.4216194,0
16.73911,-9.312058,0.2810535,0
16.73908,-9.312073,0.1405163,0
16.73908,-9.312073,-1.907349E-06,0
16.73908,-9.312073,-0.1405201,0
16.73908,-9.312073,-0.2810574,0
16.73908,-9.312073,-0.4216213,0
16.73908,-9.312073,-0.562233,0
16.73908,-9.312073,-0.7029037,0
16.73908,-9.312073,-0.8436489,0
16.56898,-9.217457,-0.9744835,0
15.26345,-8.491153,-1.02622,0
14.14775,-7.870469,-1.070436,0
13.18014,-7.332208,-1.108408,0
12.05836,-6.70816,-1.115896,0
11.49866,-6.396813,-1.16132,0
10.87331,-6.048885,-1.19021,0
10.37312,-5.770646,-1.223392,0
10.37309,-5.770593,-1.311464,0
10.18867,-5.668003,-1.374792,0
9.675303,-5.382421,-1.387945,0
9.19696,-5.116326,-1.397816,0
8.762861,-4.874843,-1.406773,0
8.36713,-4.654708,-1.414938,0
8.004831,-4.453122,-1.422413,0
7.671875,-4.267935,-1.429283,0
7.364857,-4.09711,-1.435619,0
7.080714,-3.939048,-1.441483,0
6.817079,-3.792399,-1.44692,0
6.571694,-3.655891,-1.451986,0
6.342775,-3.528551,-1.456709,0
6.128594,-3.409374,-1.461126,0
5.927874,-3.297735,-1.465269,0
5.7393,-3.192822,-1.46916,0
5.56176,-3.094058,-1.472824,0
16.67122,-9.312431,4.566889,0
16.67125,-9.312485,4.41905,0
16.67122,-9.312431,4.271708,0
16.67122,-9.312431,4.124857,0
16.67122,-9.312431,3.978464,0
16.67122,-9.312431,3.832521,0
16.67122,-9.312431,3.687,0
16.67122,-9.312431,3.541899,0
16.67122,-9.312431,3.39719,0
16.67122,-9.312431,3.252859,0
16.67122,-9.312431,3.108889,0
16.67122,-9.312431,2.965258,0
16.67122,-9.312431,2.821951,0
16.67122,-9.312431,2.678965,0
16.67122,-9.312431,2.536268,0
16.67122,-9.312431,2.393848,0
16.67122,-9.312431,2.251696,0
16.67122,-9.312431,2.109776,0
16.67122,-9.312431,1.968094,0
16.67125,-9.312485,1.826633,0
16.67122,-9.312431,1.685358,0
16.67125,-9.312485,1.544279,0
16.67122,-9.312431,1.403355,0
16.67122,-9.312431,1.26259,0
16.67125,-9.312485,1.121956,0
16.67125,-9.312485,0.9814548,0
16.67122,-9.312431,0.8410473,0
16.67122,-9.312431,0.7007313,0
16.67125,-9.312485,0.5604954,0
16.67122,-9.312431,0.4203148,0
16.67122,-9.312431,0.2801876,0
16.67122,-9.312431,0.1400833,0
16.67122,-9.312431,-1.907349E-06,0
16.67122,-9.312431,-0.1400871,0
16.67122,-9.312431,-0.2801895,0
16.67119,-9.312446,-0.4203205,0
16.67122,-9.312431,-0.5604992,0
16.67119,-9.312446,-0.7007351,0
16.67119,-9.312446,-0.8410473,0
16.54466,-9.241768,-0.9740009,0
15.24167,-8.513939,-1.025755,0
14.12802,-7.891858,-1.069986,0
13.16518,-7.353988,-1.108227,0
12.03874,-6.724767,-1.115168,0
11.48033,-6.412853,-1.160597,0
10.85825,-6.065371,-1.189722,0
10.3306,-5.770611,-1.219566,0
10.3306,-5.770611,-1.307364,0
10.17915,-5.685986,-1.374846,0
9.6651,-5.398898,-1.387831,0
9.187272,-5.131965,-1.397707,0
8.753695,-4.88978,-1.406668,0
8.358376,-4.668935,-1.414837,0
7.996522,-4.466827,-1.422316,0
7.663927,-4.281027,-1.42919,0
7.357218,-4.109685,-1.43553,0
7.073415,-3.95116,-1.441393,0
6.810064,-3.804078,-1.446838,0
6.564964,-3.667137,-1.451902,0
6.33625,-3.539407,-1.456629,0
6.122331,-3.419879,-1.46105,0
5.921787,-3.307866,-1.465197,0
5.733394,-3.202645,-1.469088,0
5.556089,-3.103614,-1.472754,0
16.60377,-9.312842,4.552858,0
16.60377,-9.312842,4.405472,0
16.60377,-9.312842,4.258587,0
16.60377,-9.312842,4.112186,0
16.60377,-9.312842,3.966236,0
16.60377,-9.312842,3.820742,0
16.60377,-9.312842,3.675676,0
16.60377,-9.312842,3.531013,0
16.6038,-9.312828,3.386751,0
16.60377,-9.312842,3.242865,0
16.60377,-9.312842,3.099333,0
16.60377,-9.312842,2.956148,0
16.60377,-9.312842,2.813288,0
16.6038,-9.312828,2.670736,0
16.60377,-9.312842,2.528479,0
16.60377,-9.312842,2.386494,0
16.60377,-9.312842,2.24478,0
16.60377,-9.312842,2.103304,0
16.60377,-9.312842,1.962049,0
16.60377,-9.312842,1.82102,0
16.60377,-9.312842,1.680178,0
16.60377,-9.312842,1.53953,0
16.60377,-9.312842,1.399042,0
16.60377,-9.312842,1.258707,0
16.6038,-9.312828,1.118513,0
16.6038,-9.312828,0.9784374,0
16.60377,-9.312842,0.8384571,0
16.60377,-9.312842,0.6985741,0
16.60377,-9.312842,0.558773,0
16.60377,-9.312842,0.4190235,0
16.60377,-9.312842,0.2793293,0
16.60377,-9.312842,0.1396523,0
16.60377,-9.312842,-1.907349E-06,0
16.60377,-9.312842,-0.139658,0
16.60377,-9.312842,-0.2793293,0
16.60377,-9.312842,-0.4190292,0
16.60374,-9.312857,-0.5587749,0
16.60374,-9.312857,-0.6985817,0
16.60377,-9.312842,-0.8384647,0
16.52037,-9.266064,-0.9735203,0
15.21986,-8.536604,-1.025288,0
14.10829,-7.913178,-1.069532,0
13.14716,-7.374101,-1.107792,0
12.01917,-6.741411,-1.114443,0
11.46202,-6.42888,-1.159876,0
10.84323,-6.081826,-1.189234,0
10.30868,-5.782,-1.218168,0
10.28837,-5.770619,-1.303289,0
10.1696,-5.703982,-1.374897,0
9.654893,-5.415306,-1.387716,0
9.177585,-5.147604,-1.397596,0
8.744499,-4.904664,-1.406561,0
8.34965,-4.683215,-1.414736,0
7.988156,-4.480426,-1.42222,0
7.655952,-4.294133,-1.429098,0
7.34958,-4.122261,-1.435438,0
7.066114,-3.963273,-1.441309,0
6.802994,-3.815718,-1.446753,0
6.558181,-3.678413,-1.451822,0
6.329725,-3.550263,-1.456553,0
6.116039,-3.430399,-1.460974,0
5.91573,-3.318049,-1.46512,0
5.727542,-3.212508,-1.469017,0
5.55039,-3.113116,-1.472685,0
16.53673,-9.31324,4.538923,0
16.53673,-9.31324,4.391991,0
16.53673,-9.31324,4.245554,0
16.53673,-9.31324,4.099596,0
16.53673,-9.31324,3.9541,0
16.53673,-9.31324,3.809052,0
16.53673,-9.31324,3.664423,0
16.53673,-9.31324,3.520208,0
16.53673,-9.31324,3.37639,0
16.53673,-9.31324,3.232943,0
16.53673,-9.31324,3.089849,0
16.53673,-9.31324,2.947096,0
16.53673,-9.31324,2.80467,0
16.53673,-9.31324,2.662565,0
16.53673,-9.31324,2.520735,0
16.53673,-9.31324,2.37919,0
16.53673,-9.31324,2.237902,0
16.53673,-9.31324,2.096855,0
16.53673,-9.31324,1.956047,0
16.53673,-9.31324,1.815447,0
16.53673,-9.31324,1.675039,0
16.53673,-9.31324,1.534819,0
16.53673,-9.31324,1.394764,0
16.53676,-9.313225,1.254862,0
16.53673,-9.31324,1.115086,0
16.53673,-9.31324,0.975441,0
16.53673,-9.31324,0.8358936,0
16.53673,-9.31324,0.6964417,0
16.53673,-9.31324,0.557066,0
16.53676,-9.313225,0.4177437,0
16.53673,-9.31324,0.2784729,0
16.53673,-9.31324,0.139225,0
16.53673,-9.31324,-1.907349E-06,0
16.53673,-9.31324,-0.1392307,0
16.5367,-9.313186,-0.2784729,0
16.5367,-9.313186,-0.4177456,0
16.5367,-9.313186,-0.557066,0
16.5367,-9.313186,-0.6964436,0
16.5367,-9.313186,-0.8358974,0
16.49604,-9.290306,-0.9730434,0
15.19805,-8.559269,-1.024824,0
14.08853,-7.934445,-1.069086,0
13.12916,-7.394131,-1.107359,0
11.9996,-6.757988,-1.113718,0
11.44369,-6.444921,-1.159159,0
10.82817,-6.098242,-1.188749,0
10.29458,-5.797753,-1.217695,0
10.24639,-5.770566,-1.299246,0
10.16005,-5.721978,-1.374952,0
9.644604,-5.43169,-1.387602,0
9.167868,-5.163189,-1.397488,0
8.73525,-4.919577,-1.406458,0
8.340869,-4.697456,-1.414637,0
7.979791,-4.494092,-1.422123,0
7.647948,-4.307186,-1.429003,0
7.341913,-4.134851,-1.43535,0
7.058731,-3.975361,-1.441221,0
6.79595,-3.827344,-1.446669,0
6.551368,-3.689634,-1.451742,0
6.323173,-3.561134,-1.456472,0
6.109748,-3.440919,-1.460899,0
5.909643,-3.32818,-1.465048,0
5.721637,-3.222332,-1.468946,0
5.544694,-3.122686,-1.472616,0
16.47013,-9.313608,4.525091,0
16.47013,-9.313608,4.378607,0
16.47013,-9.313608,4.232615,0
16.47013,-9.313608,4.087103,0
16.47013,-9.313608,3.942051,0
16.47013,-9.313608,3.797441,0
16.47013,-9.313608,3.653257,0
16.47013,-9.313608,3.509478,0
16.47013,-9.313608,3.3661,0
16.47013,-9.313608,3.223093,0
16.47013,-9.313608,3.080435,0
16.47013,-9.313608,2.93812,0
16.47013,-9.313608,2.796129,0
16.47013,-9.313608,2.654448,0
16.47013,-9.313608,2.513058,0
16.47013,-9.313608,2.371943,0
16.47013,-9.313608,2.231089,0
16.47013,-9.313608,2.090473,0
16.47013,-9.313608,1.950087,0
16.47013,-9.313608,1.809916,0
16.47013,-9.313608,1.669935,0
16.47013,-9.313608,1.530144,0
16.47013,-9.313608,1.390512,0
16.47013,-9.313608,1.251032,0
16.47013,-9.313608,1.111689,0
16.47013,-9.313608,0.9724674,0
16.47013,-9.313608,0.8333454,0
16.47013,-9.313608,0.6943207,0
16.47013,-9.313608,0.5553646,0
16.47013,-9.313608,0.4164658,0
16.47013,-9.313608,0.2776222,0
16.47013,-9.313608,0.1388016,0
16.47013,-9.313608,-1.907349E-06,0
16.47013,-9.313608,-0.1388054,0
16.4701,-9.313555,-0.2776241,0
16.47007,-9.313569,-0.4164734,0
16.47007,-9.313569,-0.5553684,0
16.47007,-9.313569,-0.6943207,0
16.47007,-9.313569,-0.8333492,0
16.47007,-9.313569,-0.9724693,0
15.17624,-8.581934,-1.024361,0
14.06875,-7.955659,-1.068636,0
13.11107,-7.414138,-1.106926,0
11.98001,-6.77451,-1.112997,0
11.42538,-6.460879,-1.158443,0
10.81312,-6.114645,-1.188265,0
10.28047,-5.81344,-1.217224,0
10.20468,-5.77057,-1.295233,0
10.15042,-5.739882,-1.375004,0
9.634315,-5.448074,-1.387489,0
9.158151,-5.178774,-1.397379,0
8.726025,-4.934407,-1.406355,0
8.332058,-4.711643,-1.414536,0
7.971397,-4.507705,-1.422028,0
7.639917,-4.320253,-1.428911,0
7.334219,-4.147387,-1.435261,0
7.051376,-3.987435,-1.441135,0
6.788851,-3.838999,-1.446589,0
6.544555,-3.700855,-1.45166,0
6.316618,-3.571937,-1.456396,0
6.1034,-3.4514,-1.460825,0
5.903502,-3.33834,-1.464975,0
5.715731,-3.232155,-1.468874,0
5.538967,-3.132203,-1.472548,0
16.40388,-9.31399,4.511358,0
16.40388,-9.31399,4.365314,0
16.40388,-9.31399,4.219767,0
16.40388,-9.31399,4.074697,0
16.40388,-9.31399,3.930086,0
16.40388,-9.31399,3.785913,0
16.40388,-9.31399,3.64217,0
16.40388,-9.31399,3.498827,0
16.40388,-9.31399,3.355879,0
16.40388,-9.31399,3.213308,0
16.40388,-9.31399,3.071077,0
16.40388,-9.31399,2.929199,0
16.40388,-9.31399,2.787642,0
16.40388,-9.31399,2.646391,0
16.40388,-9.31399,2.505428,0
16.40388,-9.31399,2.36474,0
16.40388,-9.31399,2.224314,0
16.40388,-9.31399,2.084124,0
16.40388,-9.31399,1.94417,0
16.40388,-9.31399,1.804419,0
16.40388,-9.31399,1.664865,0
16.40388,-9.31399,1.525497,0
16.40388,-9.31399,1.386292,0
16.40388,-9.31399,1.247236,0
16.40388,-9.31399,1.108318,0
16.40388,-9.31399,0.9695168,0
16.40391,-9.313975,0.8308201,0
16.40388,-9.31399,0.6922073,0
16.40388,-9.31399,0.5536766,0
16.40388,-9.31399,0.415205,0
16.40388,-9.31399,0.2767849,0
16.40388,-9.31399,0.1383801,0
16.40388,-9.31399,-1.907349E-06,0
16.40388,-9.31399,-0.1383839,0
16.40385,-9.313936,-0.276783,0
16.40385,-9.313936,-0.4152088,0
16.40385,-9.313936,-0.5536804,0
16.40385,-9.313936,-0.692215,0
16.40385,-9.313936,-0.8308201,0
16.40385,-9.313936,-0.9695168,0
15.1544,-8.604546,-1.023899,0
14.04899,-7.976859,-1.06819,0
13.09305,-7.434114,-1.106495,0
11.96113,-6.791403,-1.112341,0
11.40702,-6.476798,-1.15773,0
10.79803,-6.131008,-1.187782,0
10.26633,-5.829142,-1.216755,0
10.16322,-5.770579,-1.291246,0
10.14081,-5.757839,-1.375061,0
9.624051,-5.464442,-1.387377,0
9.148407,-5.194374,-1.397272,0
8.716747,-4.949266,-1.40625,0
8.323221,-4.725845,-1.414436,0
7.963003,-4.521317,-1.421932,0
7.631886,-4.33332,-1.42882,0
7.326525,-4.159923,-1.435171,0
7.043993,-3.999523,-1.44105,0
6.78178,-3.850639,-1.446505,0
6.537743,-3.712077,-1.451582,0
6.310011,-3.582768,-1.456318,0
6.09708,-3.461867,-1.460749,0
5.897389,-3.348484,-1.464903,0
5.709797,-3.241993,-1.468805,0
5.533241,-3.14172,-1.472477,0
16.33807,-9.314344,4.497721,0
16.33807,-9.314344,4.352118,0
16.33804,-9.314359,4.20701,0
16.33807,-9.314344,4.06238,0
16.33807,-9.314344,3.918203,0
16.33807,-9.314344,3.774471,0
16.33807,-9.314344,3.631151,0
16.33804,-9.314359,3.488249,0
16.33807,-9.314344,3.345734,0
16.33807,-9.314344,3.203585,0
16.33807,-9.314344,3.061792,0
16.33807,-9.314344,2.920341,0
16.33804,-9.314359,2.779211,0
16.33807,-9.314344,2.638388,0
16.33807,-9.314344,2.497856,0
16.33807,-9.314344,2.357594,0
16.33807,-9.314344,2.217587,0
16.33807,-9.314344,2.077822,0
16.33807,-9.314344,1.938286,0
16.33807,-9.314344,1.798965,0
16.33807,-9.314344,1.659834,0
16.33807,-9.314344,1.520887,0
16.33807,-9.314344,1.382095,0
16.33807,-9.314344,1.243469,0
16.33807,-9.314344,1.104971,0
16.33807,-9.314344,0.9665794,0
16.33807,-9.314344,0.8283081,0
16.33807,-9.314344,0.690115,0
16.33804,-9.314359,0.5520077,0
16.33807,-9.314344,0.4139557,0
16.33807,-9.314344,0.2759438,0
16.33807,-9.314344,0.1379566,0
16.33807,-9.314344,-1.907349E-06,0
16.33804,-9.314359,-0.1379642,0
16.33804,-9.314359,-0.2759457,0
16.33801,-9.314305,-0.4139557,0
16.33801,-9.314305,-0.5520077,0
16.33801,-9.314305,-0.6901207,0
16.33801,-9.314305,-0.8283081,0
16.33801,-9.314305,-0.9665852,0
15.13255,-8.627088,-1.023439,0
14.0292,-7.998072,-1.067747,0
13.07496,-7.454052,-1.106066,0
11.95327,-6.814598,-1.112715,0
11.38871,-6.492687,-1.157019,0
10.78296,-6.147356,-1.187302,0
10.25219,-5.844774,-1.216288,0
10.12203,-5.770577,-1.287291,0
10.12203,-5.770577,-1.373878,0
9.613705,-5.480787,-1.387266,0
9.138607,-5.209935,-1.397163,0
8.707468,-4.964126,-1.406149,0
8.31441,-4.740032,-1.414339,0
7.954553,-4.534891,-1.421837,0
7.623826,-4.346334,-1.428728,0
7.31883,-4.17246,-1.435083,0
7.036581,-4.011558,-1.440966,0
6.774654,-3.86224,-1.446423,0
6.5309,-3.723244,-1.451502,0
6.30343,-3.593585,-1.456242,0
6.090677,-3.472309,-1.460674,0
5.891247,-3.358576,-1.46483,0
5.703861,-3.251763,-1.468735,0
5.527489,-3.151251,-1.47241,0
16.27261,-9.314713,4.484175,0
16.27261,-9.314713,4.339014,0
16.27261,-9.314713,4.194342,0
16.27261,-9.314713,4.050148,0
16.27261,-9.314713,3.906408,0
16.27261,-9.314713,3.763103,0
16.27261,-9.314713,3.620226,0
16.27264,-9.314697,3.477751,0
16.27261,-9.314713,3.335661,0
16.27264,-9.314697,3.193945,0
16.27264,-9.314697,3.05258,0
16.27261,-9.314713,2.911551,0
16.27264,-9.314697,2.770847,0
16.27264,-9.314697,2.630445,0
16.27261,-9.314713,2.490335,0
16.27264,-9.314697,2.350496,0
16.27261,-9.314713,2.210907,0
16.27261,-9.314713,2.071569,0
16.27261,-9.314713,1.932451,0
16.27261,-9.314713,1.79355,0
16.27261,-9.314713,1.654839,0
16.27261,-9.314713,1.516306,0
16.27261,-9.314713,1.377939,0
16.27261,-9.314713,1.239723,0
16.27261,-9.314713,1.101641,0
16.27264,-9.314697,0.9636745,0
16.27261,-9.314713,0.8258114,0
16.27261,-9.314713,0.6880379,0
16.27261,-9.314713,0.5503387,0
16.27261,-9.314713,0.4127083,0
16.27261,-9.314713,0.275116,0
16.27261,-9.314713,0.1375408,0
16.27261,-9.314713,-1.907349E-06,0
16.27261,-9.314713,-0.1375523,0
16.27261,-9.314713,-0.2751141,0
16.27261,-9.314713,-0.4127083,0
16.27261,-9.314713,-0.5503464,0
16.27261,-9.314713,-0.6880417,0
16.27261,-9.314713,-0.8258152,0
16.27261,-9.314713,-0.9636745,0
15.11071,-8.649632,-1.02298,0
14.00941,-8.019218,-1.067301,0
13.05685,-7.473937,-1.105637,0
11.94535,-6.837685,-1.113089,0
11.3704,-6.508578,-1.156309,0
10.76789,-6.163705,-1.186823,0
10.23805,-5.860407,-1.21582,0
10.08109,-5.770582,-1.28336,0
10.08106,-5.770528,-1.369684,0
9.60336,-5.497132,-1.387154,0
9.128834,-5.225481,-1.397058,0
8.698191,-4.978985,-1.406046,0
8.305546,-4.754249,-1.41424,0
7.946103,-4.548465,-1.421741,0
7.615739,-4.359363,-1.428637,0
7.311052,-4.184971,-1.434996,0
7.029142,-4.023607,-1.44088,0
6.767528,-3.873842,-1.446341,0
6.524005,-3.734441,-1.451422,0
6.296848,-3.604403,-1.456165,0
6.0843,-3.482736,-1.4606,0
5.885107,-3.368736,-1.464758,0
5.697928,-3.261601,-1.468664,0
5.521733,-3.160715,-1.472342,0
16.20759,-9.315051,4.470726,0
16.20759,-9.315051,4.325998,0
16.20759,-9.315051,4.181765,0
16.20759,-9.315051,4.038,0
16.20759,-9.315051,3.89469,0
16.20759,-9.315051,3.75182,0
16.20759,-9.315051,3.609369,0
16.20759,-9.315051,3.467319,0
16.20759,-9.315051,3.325659,0
16.20759,-9.315051,3.184366,0
16.20759,-9.315051,3.043421,0
16.20759,-9.315051,2.902815,0
16.20759,-9.315051,2.762533,0
16.20759,-9.315051,2.622557,0
16.20759,-9.315051,2.482862,0
16.20759,-9.315051,2.343443,0
16.20759,-9.315051,2.204275,0
16.20759,-9.315051,2.06535,0
16.20759,-9.315051,1.926657,0
16.20759,-9.315051,1.788168,0
16.20759,-9.315051,1.649874,0
16.20759,-9.315051,1.511765,0
16.20759,-9.315051,1.373804,0
16.20759,-9.315051,1.236002,0
16.20759,-9.315051,1.098335,0
16.20759,-9.315051,0.9607849,0
16.20759,-9.315051,0.8233337,0
16.20759,-9.315051,0.6859703,0
16.20759,-9.315051,0.5486908,0
16.20759,-9.315051,0.4114685,0
16.20759,-9.315051,0.2742844,0
16.20759,-9.315051,0.1371403,0
16.20759,-9.315051,-1.907349E-06,0
16.20759,-9.315051,-0.1371384,0
16.20759,-9.315051,-0.2742901,0
16.20759,-9.315051,-0.4114704,0
16.20757,-9.315065,-0.5486965,0
16.20757,-9.315065,-0.6859798,0
16.20757,-9.315065,-0.8233376,0
16.20757,-9.315065,-0.9607849,0
15.08884,-8.672119,-1.022524,0
13.98959,-8.04031,-1.066862,0
13.03879,-7.49386,-1.105211,0
11.9374,-6.860855,-1.113461,0
11.35209,-6.524467,-1.155605,0
10.75279,-6.18,-1.186344,0
10.22391,-5.87604,-1.215355,0
10.04037,-5.770538,-1.279459,0
10.04037,-5.770538,-1.36552,0
9.592985,-5.513423,-1.387043,0
9.118979,-5.241003,-1.396952,0
8.688828,-4.993752,-1.405945,0
8.296679,-4.768397,-1.414143,0
7.937626,-4.562054,-1.421648,0
7.607653,-4.37239,-1.428547,0
7.303301,-4.197469,-1.434908,0
7.021729,-4.035642,-1.440794,0
6.760344,-3.885404,-1.446259,0
6.517137,-3.745624,-1.451342,0
6.290212,-3.615181,-1.456087,0
6.077923,-3.493164,-1.460527,0
5.878908,-3.378788,-1.464685,0
5.691936,-3.271332,-1.468596,0
5.515952,-3.170192,-1.472273,0
16.14296,-9.315459,4.457373,0
16.14296,-9.315459,4.313078,0
16.14296,-9.315459,4.169271,0
16.14296,-9.315459,4.025938,0
16.14296,-9.315459,3.883059,0
16.14296,-9.315459,3.740614,0
16.14296,-9.315459,3.598589,0
16.14296,-9.315459,3.456964,0
16.14296,-9.315459,3.315725,0
16.14296,-9.315459,3.174854,0
16.14296,-9.315459,3.034327,0
16.14296,-9.315459,2.894148,0
16.14296,-9.315459,2.754286,0
16.14296,-9.315459,2.614719,0
16.14296,-9.315459,2.475449,0
16.14296,-9.315459,2.336439,0
16.14296,-9.315459,2.197699,0
16.14296,-9.315459,2.059185,0
16.14296,-9.315459,1.9209,0
16.14296,-9.315459,1.782831,0
16.14296,-9.315459,1.644945,0
16.14296,-9.315459,1.507244,0
16.14296,-9.315459,1.369703,0
16.14296,-9.315459,1.232311,0
16.14296,-9.315459,1.095053,0
16.14296,-9.315459,0.9579163,0
16.14296,-9.315459,0.8208733,0
16.14296,-9.315459,0.6839275,0
16.14296,-9.315459,0.5470524,0
16.14296,-9.315459,0.4102459,0
16.14296,-9.315459,0.2734699,0
16.14296,-9.315459,0.1367283,0
16.14296,-9.315459,0,0
16.14293,-9.315405,-0.1367283,0
16.14293,-9.315405,-0.2734699,0
16.14293,-9.315405,-0.4102421,0
16.14293,-9.315405,-0.5470581,0
16.14293,-9.315405,-0.6839314,0
16.14293,-9.315405,-0.8208771,0
16.1429,-9.315419,-0.9579144,0
15.06699,-8.694527,-1.022068,0
13.96978,-8.061401,-1.06642,0
13.02067,-7.513675,-1.104786,0
11.92943,-6.883972,-1.113832,0
11.33381,-6.540275,-1.154902,0
10.73763,-6.196256,-1.185869,0
10.20971,-5.891633,-1.214891,0
9.999916,-5.770553,-1.275585,0
9.999889,-5.770567,-1.361385,0
9.582584,-5.52973,-1.386934,0
9.109123,-5.256525,-1.396847,0
8.679493,-5.008573,-1.405844,0
8.287731,-4.782521,-1.414045,0
7.929121,-4.575588,-1.421555,0
7.59951,-4.38538,-1.428457,0
7.295551,-4.209966,-1.434822,0
7.014235,-4.047652,-1.440712,0
6.75319,-3.89702,-1.446178,0
6.510267,-3.756806,-1.451265,0
6.283546,-3.625974,-1.456013,0
6.071493,-3.50362,-1.460451,0
5.872711,-3.388908,-1.464615,0
5.685948,-3.281131,-1.468527,0
5.510169,-3.17967,-1.472208,0
16.0787,-9.315798,4.444109,0
16.0787,-9.315798,4.300245,0
16.0787,-9.315798,4.15687,0
16.0787,-9.315798,4.01396,0
16.0787,-9.315798,3.871506,0
16.0787,-9.315798,3.729486,0
16.0787,-9.315798,3.587883,0
16.0787,-9.315798,3.446678,0
16.0787,-9.315798,3.305861,0
16.0787,-9.315798,3.165409,0
16.0787,-9.315798,3.025305,0
16.0787,-9.315798,2.885542,0
16.0787,-9.315798,2.746092,0
16.0787,-9.315798,2.606939,0
16.0787,-9.315798,2.468081,0
16.0787,-9.315798,2.329489,0
16.07868,-9.315813,2.191162,0
16.0787,-9.315798,2.053061,0
16.0787,-9.315798,1.915186,0
16.0787,-9.315798,1.777525,0
16.0787,-9.315798,1.640045,0
16.07868,-9.315813,1.502756,0
16.0787,-9.315798,1.365623,0
16.0787,-9.315798,1.228645,0
16.0787,-9.315798,1.091795,0
16.0787,-9.315798,0.9550629,0
16.0787,-9.315798,0.8184338,0
16.0787,-9.315798,0.6818886,0
16.0787,-9.315798,0.5454273,0
16.07868,-9.315813,0.4090214,0
16.0787,-9.315798,0.2726517,0
16.0787,-9.315798,0.1363182,0
16.0787,-9.315798,-1.907349E-06,0
16.07868,-9.315813,-0.1363201,0
16.07868,-9.315813,-0.2726555,0
16.07868,-9.315813,-0.4090195,0
16.07868,-9.315813,-0.5454273,0
16.07865,-9.31576,-0.6818943,0
16.07868,-9.315813,-0.8184357,0
16.07868,-9.315813,-0.9550648,0
15.04509,-8.716962,-1.021614,0
13.94995,-8.082424,-1.065983,0
13.00253,-7.533506,-1.104362,0
11.92134,-6.907078,-1.114206,0
11.31547,-6.556043,-1.1542,0
10.72253,-6.212483,-1.185394,0
10.19557,-5.907197,-1.21443,0
9.959683,-5.770518,-1.271738,0
9.959683,-5.770518,-1.357279,0
9.572153,-5.545982,-1.386824,0
9.099264,-5.271978,-1.396742,0
8.670102,-5.023355,-1.405743,0
8.278837,-4.796684,-1.413948,0
7.920615,-4.589123,-1.421461,0
7.591394,-4.398354,-1.428368,0
7.287744,-4.222425,-1.434736,0
7.006766,-4.059648,-1.440628,0
6.746007,-3.908582,-1.446096,0
6.503343,-3.76795,-1.451187,0
6.276883,-3.636766,-1.455936,0
6.06509,-3.514063,-1.460379,0
5.866487,-3.398976,-1.464544,0
5.679959,-3.290931,-1.468456,0
5.504361,-3.189163,-1.472139,0
16.0148,-9.316152,4.430944,0
16.0148,-9.316152,4.287504,0
16.0148,-9.316152,4.144552,0
16.0148,-9.316152,4.002066,0
16.0148,-9.316152,3.860033,0
16.0148,-9.316152,3.718435,0
16.0148,-9.316152,3.57725,0
16.0148,-9.316152,3.436464,0
16.0148,-9.316152,3.296064,0
16.0148,-9.316152,3.156027,0
16.0148,-9.316152,3.01634,0
16.0148,-9.316152,2.876993,0
16.0148,-9.316152,2.737951,0
16.0148,-9.316152,2.599215,0
16.0148,-9.316152,2.460766,0
16.0148,-9.316152,2.322588,0
16.0148,-9.316152,2.184668,0
16.0148,-9.316152,2.04698,0
16.0148,-9.316152,1.909513,0
16.0148,-9.316152,1.772257,0
16.0148,-9.316152,1.635195,0
16.0148,-9.316152,1.498306,0
16.0148,-9.316152,1.361578,0
16.0148,-9.316152,1.225004,0
16.0148,-9.316152,1.08856,0
16.0148,-9.316152,0.9522343,0
16.0148,-9.316152,0.8160133,0
16.0148,-9.316152,0.6798763,0
16.0148,-9.316152,0.5438118,0
16.0148,-9.316152,0.4078026,0
16.0148,-9.316152,0.2718487,0
16.0148,-9.316152,0.1359081,0
16.0148,-9.316152,-1.907349E-06,0
16.0148,-9.316152,-0.1359177,0
16.0148,-9.316152,-0.2718487,0
16.0148,-9.316152,-0.4078083,0
16.0148,-9.316152,-0.5438137,0
16.0148,-9.316152,-0.6798763,0
16.0148,-9.316152,-0.8160114,0
16.0148,-9.316152,-0.9522343,0
15.02321,-8.739315,-1.021162,0
13.93011,-8.103464,-1.065544,0
12.98442,-7.553322,-1.103941,0
11.91329,-6.930239,-1.11458,0
11.29718,-6.571781,-1.153502,0
10.7074,-6.228724,-1.184921,0
10.18137,-5.922724,-1.213968,0
9.919697,-5.770488,-1.267916,0
9.919697,-5.770488,-1.353201,0
9.561695,-5.562249,-1.386713,0
9.089352,-5.287461,-1.396637,0
8.660711,-5.038136,-1.405642,0
8.269857,-4.810755,-1.413853,0
7.912079,-4.602604,-1.42137,0
7.583195,-4.411304,-1.428278,0
7.279938,-4.234883,-1.434649,0
6.99927,-4.07159,-1.440546,0
6.738795,-3.920091,-1.446018,0
6.496392,-3.779108,-1.451109,0
6.270216,-3.647491,-1.455862,0
6.058631,-3.524466,-1.460306,0
5.860288,-3.409028,-1.464472,0
5.673941,-3.300676,-1.468388,0
5.498523,-3.198601,-1.472073,0
15.95131,-9.316492,4.417868,0
15.95129,-9.316505,4.274851,0
15.95129,-9.316505,4.132318,0
15.95131,-9.316492,3.990255,0
15.95129,-9.316505,3.848642,0
15.95131,-9.316492,3.707458,0
15.95131,-9.316492,3.566694,0
15.95131,-9.316492,3.426323,0
15.95129,-9.316505,3.286335,0
15.95131,-9.316492,3.146713,0
15.95131,-9.316492,3.007439,0
15.95131,-9.316492,2.868498,0
15.95131,-9.316492,2.729874,0
15.95131,-9.316492,2.591551,0
15.95131,-9.316492,2.453506,0
15.95129,-9.316505,2.315735,0
15.95129,-9.316505,2.178217,0
15.95129,-9.316505,2.040936,0
15.95129,-9.316505,1.903875,0
15.95131,-9.316492,1.767029,0
15.95129,-9.316505,1.630365,0
15.95129,-9.316505,1.493883,0
15.95129,-9.316505,1.357561,0
15.95129,-9.316505,1.221392,0
15.95129,-9.316505,1.08535,0
15.95129,-9.316505,0.9494228,0
15.95131,-9.316492,0.8136063,0
15.95131,-9.316492,0.677866,0
15.95129,-9.316505,0.5422115,0
15.95131,-9.316492,0.4066029,0
15.95131,-9.316492,0.2710495,0
15.95129,-9.316505,0.1355114,0
15.95129,-9.316505,-1.907349E-06,0
15.95131,-9.316492,-0.1355171,0
15.95129,-9.316505,-0.2710476,0
15.95129,-9.316505,-0.4066048,0
15.95129,-9.316505,-0.5422077,0
15.95129,-9.316505,-0.6778698,0
15.95126,-9.316521,-0.8136024,0
15.95129,-9.316505,-0.9494247,0
15.00133,-8.761668,-1.020712,0
13.91023,-8.124449,-1.065107,0
12.96627,-7.573085,-1.103518,0
11.90518,-6.95336,-1.114954,0
11.27886,-6.587535,-1.152805,0
10.69224,-6.244912,-1.184452,0
10.16717,-5.938249,-1.213511,0
9.879929,-5.770478,-1.26412,0
9.879929,-5.770478,-1.34915,0
9.551239,-5.578516,-1.386604,0
9.079441,-5.302944,-1.396534,0
8.651293,-5.052864,-1.405544,0
8.260908,-4.824879,-1.413757,0
7.903517,-4.6161,-1.421278,0
7.575052,-4.424294,-1.428188,0
7.272077,-4.247371,-1.434565,0
6.991775,-4.083601,-1.440462,0
6.731585,-3.931668,-1.445936,0
6.489438,-3.790197,-1.451033,0
6.263496,-3.658245,-1.455788,0
6.052169,-3.534801,-1.460234,0
5.854035,-3.41911,-1.464403,0
5.667922,-3.310422,-1.468321,0
5.492684,-3.20804,-1.472006,0
15.88818,-9.316847,4.404879,0
15.88818,-9.316847,4.262281,0
15.88821,-9.3169,4.120171,0
15.88815,-9.316861,3.978523,0
15.88818,-9.316847,3.837326,0
15.88818,-9.316847,3.69656,0
15.88815,-9.316861,3.556208,0
15.88818,-9.316847,3.41625,0
15.88815,-9.316861,3.276674,0
15.88821,-9.3169,3.137465,0
15.88818,-9.316847,2.9986,0
15.88818,-9.316847,2.860067,0
15.88818,-9.316847,2.721848,0
15.88818,-9.316847,2.583929,0
15.88815,-9.316861,2.446295,0
15.88818,-9.316847,2.308928,0
15.88818,-9.316847,2.171816,0
15.88815,-9.316861,2.034929,0
15.88815,-9.316861,1.898281,0
15.88818,-9.316847,1.761835,0
15.88815,-9.316861,1.625578,0
15.88818,-9.316847,1.489492,0
15.88818,-9.316847,1.353569,0
15.88818,-9.316847,1.217798,0
15.88818,-9.316847,1.082155,0
15.88818,-9.316847,0.9466343,0
15.88818,-9.316847,0.8112068,0
15.88815,-9.316861,0.6758709,0
15.88815,-9.316861,0.5406094,0
15.88815,-9.316861,0.4054031,0
15.88818,-9.316847,0.2702465,0
15.88818,-9.316847,0.1351109,0
15.88818,-9.316847,-1.907349E-06,0
15.88815,-9.316861,-0.1351185,0
15.88815,-9.316861,-0.2702484,0
15.88815,-9.316861,-0.4054108,0
15.88815,-9.316861,-0.5406132,0
15.88815,-9.316861,-0.6758766,0
15.88815,-9.316861,-0.8112106,0
15.88815,-9.316861,-0.9466324,0
14.9794,-8.783982,-1.020262,0
13.89038,-8.14535,-1.064674,0
12.94807,-7.592808,-1.103098,0
11.89701,-6.976441,-1.115328,0
11.2606,-6.603259,-1.152113,0
10.67711,-6.261086,-1.183981,0
10.15294,-5.953721,-1.213053,0
9.840433,-5.770458,-1.260351,0
9.840433,-5.770458,-1.345127,0
9.540752,-5.594729,-1.386497,0
9.0695,-5.318374,-1.396429,0
8.641846,-5.067606,-1.405443,0
8.251929,-4.838949,-1.413662,0
7.894928,-4.62961,-1.421186,0
7.566823,-4.437191,-1.428101,0
7.264241,-4.259775,-1.434479,0
6.984224,-4.095572,-1.440382,0
6.724346,-3.943191,-1.445858,0
6.482487,-3.801355,-1.450956,0
6.256776,-3.668999,-1.455713,0
6.045683,-3.545218,-1.460161,0
5.847783,-3.429191,-1.464333,0
5.661848,-3.320129,-1.468252,0
5.486846,-3.217479,-1.471941,0
15.8254,-9.317215,4.391979,0
15.8254,-9.317215,4.2498,0
15.8254,-9.317215,4.108107,0
15.8254,-9.317215,3.966875,0
15.8254,-9.317215,3.82609,0
15.8254,-9.317215,3.685738,0
15.8254,-9.317215,3.545795,0
15.8254,-9.317215,3.406246,0
15.8254,-9.317215,3.26708,0
15.8254,-9.317215,3.128277,0
15.8254,-9.317215,2.989819,0
15.8254,-9.317215,2.85169,0
15.8254,-9.317215,2.713879,0
15.8254,-9.317215,2.576365,0
15.8254,-9.317215,2.439133,0
15.8254,-9.317215,2.30217,0
15.8254,-9.317215,2.165445,0
15.8254,-9.317215,2.028982,0
15.8254,-9.317215,1.892721,0
15.8254,-9.317215,1.756672,0
15.8254,-9.317215,1.62081,0
15.8254,-9.317215,1.485126,0
15.8254,-9.317215,1.349607,0
15.8254,-9.317215,1.214235,0
15.8254,-9.317215,1.078993,0
15.8254,-9.317215,0.9438648,0
15.8254,-9.317215,0.8088284,0
15.8254,-9.317215,0.6738911,0
15.8254,-9.317215,0.5390282,0
15.8254,-9.317215,0.4042263,0
15.8254,-9.317215,0.2694569,0
15.8254,-9.317215,0.1347179,0
15.8254,-9.317215,-1.907349E-06,0
15.8254,-9.317215,-0.1347218,0
15.8254,-9.317215,-0.2694588,0
15.8254,-9.317215,-0.4042225,0
15.8254,-9.317215,-0.5390301,0
15.8254,-9.317215,-0.6738968,0
15.8254,-9.317215,-0.808836,0
15.8254,-9.317215,-0.943861,0
14.95749,-8.806213,-1.019817,0
13.87049,-8.166266,-1.064241,0
12.92992,-7.612503,-1.102682,0
11.88881,-6.999539,-1.115704,0
11.24231,-6.61893,-1.151421,0
10.66195,-6.277205,-1.183514,0
10.13875,-5.969178,-1.212595,0
9.801157,-5.770458,-1.256609,0
9.801157,-5.770458,-1.341135,0
9.530238,-5.610957,-1.386389,0
9.059559,-5.333802,-1.396326,0
8.632369,-5.082295,-1.405346,0
8.242924,-4.853034,-1.413567,0
7.88634,-4.643121,-1.421095,0
7.558624,-4.450141,-1.428013,0
7.256352,-4.272209,-1.434395,0
6.976673,-4.107543,-1.440298,0
6.71708,-3.954729,-1.44578,0
6.475505,-3.81246,-1.45088,0
6.250056,-3.679752,-1.455639,0
6.039194,-3.555568,-1.460089,0
5.841502,-3.439219,-1.464262,0
5.655774,-3.329835,-1.468184,0
5.480982,-3.226932,-1.471876,0
15.76303,-9.31757,4.379169,0
15.76303,-9.31757,4.237408,0
15.76303,-9.31757,4.096123,0
15.76303,-9.31757,3.955305,0
15.76303,-9.31757,3.814932,0
15.76303,-9.31757,3.674986,0
15.76303,-9.31757,3.53545,0
15.76303,-9.31757,3.396313,0
15.76303,-9.31757,3.257549,0
15.76303,-9.31757,3.119154,0
15.76303,-9.31757,2.9811,0
15.76303,-9.31757,2.843374,0
15.76303,-9.31757,2.705965,0
15.76303,-9.31757,2.56885,0
15.76303,-9.31757,2.432018,0
15.76303,-9.31757,2.295454,0
15.76303,-9.31757,2.15914,0
15.76303,-9.31757,2.023058,0
15.76303,-9.31757,1.887197,0
15.76303,-9.31757,1.751551,0
15.76303,-9.31757,1.616083,0
15.76303,-9.31757,1.480799,0
15.76303,-9.31757,1.345671,0
15.76303,-9.31757,1.21069,0
15.76303,-9.31757,1.07584,0
15.76303,-9.31757,0.9411106,0
15.76303,-9.31757,0.8064728,0
15.76303,-9.31757,0.6719284,0
15.76303,-9.31757,0.5374546,0
15.76303,-9.31757,0.4030399,0
15.76303,-9.31757,0.268671,0
15.76303,-9.31757,0.1343212,0
15.76303,-9.31757,-1.907349E-06,0
15.76303,-9.31757,-0.1343288,0
15.76303,-9.31757,-0.2686729,0
15.763,-9.317584,-0.4030437,0
15.763,-9.317584,-0.5374584,0
15.763,-9.317584,-0.6719303,0
15.763,-9.317584,-0.8064766,0
15.763,-9.317584,-0.9411087,0
14.93556,-8.828459,-1.019371,0
13.85061,-8.187115,-1.063808,0
12.91175,-7.632212,-1.102262,0
11.88057,-7.022665,-1.116079,0
11.22402,-6.634533,-1.150732,0
10.64676,-6.29334,-1.183046,0
10.12452,-5.984651,-1.212141,0
9.762097,-5.770409,-1.252893,0
9.762124,-5.770394,-1.337168,0
9.519695,-5.627131,-1.386284,0
9.049535,-5.349207,-1.396225,0
8.622896,-5.097053,-1.405247,0
8.233864,-4.867081,-1.413471,0
7.877749,-4.656563,-1.421003,0
7.55037,-4.463052,-1.427925,0
7.24846,-4.284575,-1.434309,0
6.969093,-4.119461,-1.440218,0
6.709812,-3.966198,-1.4457,0
6.468498,-3.823579,-1.450804,0
6.243307,-3.690452,-1.455564,0
6.03268,-3.565932,-1.46002,0
5.835247,-3.449233,-1.464193,0
5.649729,-3.339595,-1.468119,0
5.475088,-3.236332,-1.471809,0
15.70101,-9.317938,4.366447,0
15.70099,-9.317953,4.225096,0
15.70101,-9.317938,4.084223,0
15.70099,-9.317953,3.943815,0
15.70101,-9.317938,3.80385,0
15.70101,-9.317938,3.664309,0
15.70099,-9.317953,3.525181,0
15.70101,-9.317938,3.386446,0
15.70101,-9.317938,3.248087,0
15.70101,-9.317938,3.11009,0
15.70099,-9.317953,2.972437,0
15.70101,-9.317938,2.835112,0
15.70099,-9.317953,2.698103,0
15.70099,-9.317953,2.561388,0
15.70099,-9.317953,2.424955,0
15.70101,-9.317938,2.288784,0
15.70099,-9.317953,2.152866,0
15.70101,-9.317938,2.017179,0
15.70101,-9.317938,1.881723,0
15.70101,-9.317938,1.746464,0
15.70101,-9.317938,1.611391,0
15.70101,-9.317938,1.476498,0
15.70099,-9.317953,1.341757,0
15.70101,-9.317938,1.20717,0
15.70099,-9.317953,1.072718,0
15.70101,-9.317938,0.9383717,0
15.70101,-9.317938,0.8041306,0
15.70101,-9.317938,0.6699791,0
15.70099,-9.317953,0.5358944,0
15.70101,-9.317938,0.4018669,0
15.70101,-9.317938,0.2678967,0
15.70101,-9.317938,0.1339417,0
15.70101,-9.317938,0,0
15.70099,-9.317953,-0.1339397,0
15.70096,-9.3179,-0.2678928,0
15.70096,-9.3179,-0.4018726,0
15.70096,-9.3179,-0.5358982,0
15.70096,-9.3179,-0.6699791,0
15.70093,-9.317914,-0.8041325,0
15.70093,-9.317914,-0.9383736,0
14.91365,-8.850691,-1.018927,0
13.83071,-8.207978,-1.063379,0
12.89354,-7.651798,-1.101849,0
11.87226,-7.045752,-1.116453,0
11.20573,-6.650136,-1.150045,0
10.6316,-6.309459,-1.182581,0
10.11026,-6.000069,-1.211689,0
9.723313,-5.770418,-1.249205,0
9.723313,-5.770418,-1.333227,0
9.509125,-5.643321,-1.386177,0
9.039537,-5.364598,-1.396122,0
8.613365,-5.111703,-1.405149,0
8.224829,-4.881112,-1.41338,0
7.869074,-4.669981,-1.420914,0
7.542114,-4.475963,-1.427839,0
7.240514,-4.29697,-1.434225,0
6.961513,-4.131379,-1.440138,0
6.702518,-3.977683,-1.445623,0
6.461488,-3.83463,-1.450727,0
6.236558,-3.701153,-1.455492,0
6.026164,-3.576296,-1.459948,0
5.828938,-3.459275,-1.464125,0
5.643624,-3.349248,-1.46805,0
5.469167,-3.245746,-1.471745,0
15.63933,-9.31827,4.353813,0
15.63933,-9.31827,4.212872,0
15.63933,-9.31827,4.072409,0
15.63933,-9.31827,3.932404,0
15.63933,-9.31827,3.792845,0
15.63933,-9.31827,3.653708,0
15.63933,-9.31827,3.514982,0
15.63933,-9.31827,3.376646,0
15.63933,-9.31827,3.238691,0
15.63933,-9.31827,3.101091,0
15.63933,-9.31827,2.963837,0
15.63933,-9.31827,2.82691,0
15.63933,-9.31827,2.690294,0
15.63933,-9.31827,2.553976,0
15.63933,-9.31827,2.417936,0
15.63933,-9.31827,2.282164,0
15.63933,-9.31827,2.146637,0
15.63933,-9.31827,2.011347,0
15.63933,-9.31827,1.876274,0
15.63933,-9.31827,1.741407,0
15.63933,-9.31827,1.606726,0
15.63933,-9.31827,1.472225,0
15.63933,-9.31827,1.337879,0
15.63933,-9.31827,1.203676,0
15.63933,-9.31827,1.069613,0
15.63933,-9.31827,0.9356632,0
15.63933,-9.31827,0.8018017,0
15.63933,-9.31827,0.6680355,0
15.63933,-9.31827,0.5343418,0
15.63933,-9.31827,0.4007111,0
15.63933,-9.31827,0.2671089,0
15.63933,-9.31827,0.1335487,0
15.63933,-9.31827,-1.907349E-06,0
15.63933,-9.31827,-0.1335526,0
15.63933,-9.31827,-0.2671165,0
15.6393,-9.318283,-0.4007092,0
15.63933,-9.31827,-0.5343456,0
15.6393,-9.318283,-0.6680412,0
15.6393,-9.318283,-0.8018055,0
15.6393,-9.318283,-0.9356575,0
14.89168,-8.872814,-1.018482,0
13.81077,-8.228786,-1.062952,0
12.87531,-7.6714,-1.101437,0
11.86393,-7.068854,-1.116829,0
11.18743,-6.665738,-1.149361,0
10.61641,-6.325525,-1.182117,0
10.09603,-6.015472,-1.211237,0
9.68472,-5.770394,-1.245539,0
9.684747,-5.77038,-1.329317,0
9.498526,-5.659456,-1.38607,0
9.029514,-5.380003,-1.396021,0
8.603863,-5.126406,-1.405052,0
8.215767,-4.895158,-1.413286,0
7.860401,-4.683398,-1.420824,0
7.53383,-4.488821,-1.427752,0
7.232596,-4.309351,-1.434141,0
6.953906,-4.143312,-1.440056,0
6.695195,-3.989182,-1.445543,0
6.454451,-3.845695,-1.450651,0
6.229782,-3.711867,-1.45542,0
6.019592,-3.586621,-1.459877,0
5.822628,-3.46925,-1.464056,0
5.637524,-3.35897,-1.467983,0
5.463273,-3.255147,-1.47168,0
15.57799,-9.318614,4.341265,0
15.57799,-9.318614,4.200727,0
15.57799,-9.318614,4.060671,0
15.57799,-9.318614,3.921068,0
15.57799,-9.318614,3.781912,0
15.57799,-9.318614,3.643177,0
15.57799,-9.318614,3.50485,0
15.57799,-9.318614,3.366915,0
15.57799,-9.318614,3.229353,0
15.57799,-9.318614,3.092157,0
15.57799,-9.318614,2.955296,0
15.57799,-9.318614,2.818762,0
15.57799,-9.318614,2.682539,0
15.57799,-9.318614,2.546614,0
15.57799,-9.318614,2.410967,0
15.57799,-9.318614,2.275585,0
15.57799,-9.318614,2.140451,0
15.57799,-9.318614,2.00555,0
15.57799,-9.318614,1.870869,0
15.57799,-9.318614,1.736391,0
15.57799,-9.318614,1.602098,0
15.57799,-9.318614,1.467974,0
15.57799,-9.318614,1.334019,0
15.57799,-9.318614,1.200211,0
15.57799,-9.318614,1.066528,0
15.57799,-9.318614,0.9329643,0
15.57799,-9.318614,0.7994919,0
15.57799,-9.318614,0.6661148,0
15.57799,-9.318614,0.5328102,0
15.57799,-9.318614,0.3995533,0
15.57799,-9.318614,0.2663422,0
15.57799,-9.318614,0.1331577,0
15.57799,-9.318614,-1.907349E-06,0
15.57799,-9.318614,-0.1331673,0
15.57799,-9.318614,-0.2663479,0
15.57799,-9.318614,-0.3995552,0
15.57799,-9.318614,-0.5328045,0
15.57799,-9.318614,-0.6661148,0
15.57799,-9.318614,-0.7994938,0
15.57797,-9.318628,-0.9329624,0
14.86977,-8.894978,-1.018042,0
13.79086,-8.249582,-1.062523,0
12.85708,-7.691002,-1.101023,0
11.85557,-7.091902,-1.117207,0
11.1692,-6.681311,-1.14868,0
10.60122,-6.341522,-1.181658,0
10.08177,-6.030823,-1.210787,0
9.646372,-5.770375,-1.241899,0
9.646372,-5.770375,-1.325434,0
9.487927,-5.675591,-1.385967,0
9.019461,-5.395354,-1.39592,0
8.594301,-5.141003,-1.404955,0
8.206676,-4.90915,-1.413191,0
7.851755,-4.69687,-1.420734,0
7.525519,-4.501694,-1.427666,0
7.224677,-4.321732,-1.434059,0
6.94627,-4.15519,-1.439978,0
6.687871,-4.000612,-1.445467,0
6.447388,-3.856775,-1.450579,0
6.222977,-3.722529,-1.455345,0
6.013077,-3.596985,-1.459806,0
5.816264,-3.479254,-1.463989,0
5.631393,-3.368638,-1.467918,0
5.457352,-3.264561,-1.471615,0
15.51704,-9.318959,4.328802,0
15.51704,-9.318959,4.188669,0
15.51702,-9.318974,4.049011,0
15.51704,-9.318959,3.909811,0
15.51702,-9.318974,3.771051,0
15.51704,-9.318959,3.632715,0
15.51704,-9.318959,3.494787,0
15.51702,-9.318974,3.357248,0
15.51704,-9.318959,3.220081,0
15.51702,-9.318974,3.083277,0
15.51702,-9.318974,2.94681,0
15.51704,-9.318959,2.810669,0
15.51704,-9.318959,2.674839,0
15.51702,-9.318974,2.539305,0
15.51704,-9.318959,2.404045,0
15.51702,-9.318974,2.269051,0
15.51704,-9.318959,2.134306,0
15.51704,-9.318959,1.999794,0
15.51704,-9.318959,1.865496,0
15.51702,-9.318974,1.731405,0
15.51702,-9.318974,1.5975,0
15.51704,-9.318959,1.463768,0
15.51702,-9.318974,1.330187,0
15.51704,-9.318959,1.196762,0
15.51704,-9.318959,1.063467,0
15.51702,-9.318974,0.9302826,0
15.51702,-9.318974,0.7971954,0
15.51702,-9.318974,0.6641998,0
15.51702,-9.318974,0.531271,0
15.51702,-9.318974,0.3984089,0
15.51702,-9.318974,0.2655754,0
15.51702,-9.318974,0.1327801,0
15.51704,-9.318959,-1.907349E-06,0
15.51702,-9.318974,-0.1327839,0
15.51702,-9.318974,-0.2655811,0
15.51702,-9.318974,-0.3984089,0
15.51702,-9.318974,-0.5312767,0
15.51702,-9.318974,-0.6642036,0
15.51702,-9.318974,-0.7972012,0
15.51699,-9.31892,-0.9302845,0
14.84777,-8.917048,-1.017603,0
13.77092,-8.270323,-1.062098,0
12.83884,-7.710536,-1.100611,0
11.84716,-7.11498,-1.117582,0
11.1509,-6.696845,-1.148001,0
10.586,-6.357604,-1.181196,0
10.06748,-6.046187,-1.210339,0
9.608243,-5.770375,-1.238283,0
9.608243,-5.770375,-1.321575,0
9.477272,-5.691688,-1.38586,0
9.00938,-5.410719,-1.395819,0
8.584717,-5.155682,-1.40486,0
8.197559,-4.923158,-1.413099,0
7.843052,-4.710234,-1.420645,0
7.517208,-4.514565,-1.42758,0
7.216702,-4.334073,-1.433977,0
6.938607,-4.167083,-1.439898,0
6.680493,-4.012073,-1.445391,0
6.440295,-3.867801,-1.450502,0
6.216145,-3.733204,-1.455275,0
6.006477,-3.607257,-1.459738,0
5.809927,-3.489243,-1.463923,0
5.625264,-3.378305,-1.467852,0
5.451403,-3.273921,-1.471552,0
15.45645,-9.319319,4.316422,0
15.45645,-9.319319,4.176689,0
15.45642,-9.319334,4.037432,0
15.45642,-9.319334,3.898632,0
15.45645,-9.319319,3.760269,0
15.45642,-9.319334,3.622328,0
15.45642,-9.319334,3.484793,0
15.45645,-9.319319,3.347649,0
15.45642,-9.319334,3.210875,0
15.45642,-9.319334,3.074459,0
15.45645,-9.319319,2.938385,0
15.45645,-9.319319,2.802633,0
15.45645,-9.319319,2.667191,0
15.45642,-9.319334,2.532042,0
15.45642,-9.319334,2.397171,0
15.45642,-9.319334,2.262562,0
15.45642,-9.319334,2.128202,0
15.45645,-9.319319,1.994072,0
15.45642,-9.319334,1.860163,0
15.45642,-9.319334,1.726454,0
15.45645,-9.319319,1.59293,0
15.45645,-9.319319,1.459583,0
15.45645,-9.319319,1.326389,0
15.45642,-9.319334,1.193338,0
15.45642,-9.319334,1.060425,0
15.45642,-9.319334,0.9276257,0
15.45642,-9.319334,0.79492,0
15.45642,-9.319334,0.662302,0
15.45645,-9.319319,0.5297585,0
15.45642,-9.319334,0.3972664,0
15.45645,-9.319319,0.2648182,0
15.45645,-9.319319,0.1324024,0
15.45645,-9.319319,0,0
15.45642,-9.319334,-0.1324043,0
15.45639,-9.319281,-0.2648239,0
15.45639,-9.319281,-0.3972683,0
15.45639,-9.319281,-0.5297565,0
15.45637,-9.319294,-0.662302,0
15.45639,-9.319281,-0.79492,0
15.45639,-9.319281,-0.9276237,0
14.82583,-8.939089,-1.017164,0
13.75097,-8.290996,-1.061674,0
12.82061,-7.730069,-1.100203,0
11.83872,-7.138071,-1.11796,0
11.1326,-6.712312,-1.147322,0
10.57078,-6.373548,-1.180738,0
10.0532,-6.061484,-1.209892,0
9.570305,-5.770342,-1.234694,0
9.570305,-5.770342,-1.317743,0
9.466618,-5.707785,-1.385756,0
8.999273,-5.426032,-1.39572,0
8.575129,-5.170292,-1.404764,0
8.188413,-4.937111,-1.413008,0
7.834296,-4.723627,-1.420557,0
7.508868,-4.527384,-1.427496,0
7.208701,-4.346429,-1.433895,0
6.930944,-4.178977,-1.439817,0
6.673142,-4.023518,-1.445313,0
6.433203,-3.878828,-1.450428,0
6.209312,-3.74388,-1.455202,0
5.999906,-3.617582,-1.459669,0
5.80356,-3.499178,-1.463854,0
5.619106,-3.387987,-1.467787,0
5.445452,-3.283282,-1.471487,0
15.39615,-9.319654,4.304129,0
15.39615,-9.319654,4.164795,0
15.39615,-9.319654,4.025934,0
15.39615,-9.319654,3.887526,0
15.39615,-9.319654,3.749557,0
15.39615,-9.319654,3.612009,0
15.39615,-9.319654,3.474871,0
15.39615,-9.319654,3.338114,0
15.39615,-9.319654,3.201731,0
15.39615,-9.319654,3.065702,0
15.39615,-9.319654,2.930014,0
15.39615,-9.319654,2.794649,0
15.39615,-9.319654,2.659594,0
15.39615,-9.319654,2.52483,0
15.39615,-9.319654,2.390343,0
15.39615,-9.319654,2.256121,0
15.39615,-9.319654,2.122141,0
15.39615,-9.319654,1.988394,0
15.39615,-9.319654,1.854862,0
15.39615,-9.319654,1.721535,0
15.39615,-9.319654,1.588394,0
15.39615,-9.319654,1.455425,0
15.39615,-9.319654,1.322615,0
15.39615,-9.319654,1.189951,0
15.39615,-9.319654,1.057407,0
15.39615,-9.319654,0.9249821,0
15.39615,-9.319654,0.7926502,0
15.39615,-9.319654,0.6604118,0
15.39615,-9.319654,0.5282402,0
15.39615,-9.319654,0.3961353,0
15.39615,-9.319654,0.2640686,0
15.39615,-9.319654,0.1320248,0
15.39615,-9.319654,-1.907349E-06,0
15.39615,-9.319654,-0.1320286,0
15.39615,-9.319654,-0.2640686,0
15.39615,-9.319654,-0.3961353,0
15.39615,-9.319654,-0.5282497,0
15.39613,-9.3196,-0.6604176,0
15.39613,-9.3196,-0.7926559,0
15.3961,-9.319614,-0.9249821,0
14.80383,-8.961092,-1.016727,0
13.731,-8.311684,-1.061253,0
12.80234,-7.749549,-1.099794,0
11.83025,-7.161109,-1.118336,0
11.11436,-6.727749,-1.146648,0
10.55556,-6.389492,-1.180281,0
10.03891,-6.076781,-1.209448,0
9.538305,-5.773744,-1.231859,0
9.532611,-5.770312,-1.313938,0
9.455936,-5.723895,-1.385653,0
8.989162,-5.441344,-1.39562,0
8.565516,-5.184918,-1.404667,0
8.179239,-4.951079,-1.412916,0
7.825593,-4.736991,-1.420469,0
7.500501,-4.540217,-1.42741,0
7.200726,-4.35877,-1.433813,0
6.923279,-4.190802,-1.439737,0
6.665792,-4.034963,-1.445238,0
6.426109,-3.889854,-1.450354,0
6.202452,-3.754502,-1.45513,0
5.993279,-3.627868,-1.459597,0
5.797196,-3.509182,-1.463785,0
5.61292,-3.397616,-1.467722,0
5.439475,-3.292658,-1.471426,0
15.33621,-9.320004,4.291916,0
15.33624,-9.31999,4.152975,0
15.33621,-9.320004,4.014509,0
15.33621,-9.320004,3.876495,0
15.33621,-9.320004,3.73892,0
15.33621,-9.320004,3.601763,0
15.33621,-9.320004,3.46501,0
15.33624,-9.31999,3.32864,0
15.33621,-9.320004,3.192644,0
15.33624,-9.31999,3.057003,0
15.33621,-9.320004,2.9217,0
15.33621,-9.320004,2.786718,0
15.33621,-9.320004,2.652046,0
15.33621,-9.320004,2.517668,0
15.33624,-9.31999,2.383562,0
15.33621,-9.320004,2.249718,0
15.33621,-9.320004,2.116117,0
15.33621,-9.320004,1.982752,0
15.33621,-9.320004,1.849602,0
15.33624,-9.31999,1.716652,0
15.33621,-9.320004,1.583887,0
15.33621,-9.320004,1.451296,0
15.33621,-9.320004,1.318863,0
15.33624,-9.31999,1.186567,0
15.33621,-9.320004,1.054401,0
15.33624,-9.31999,0.9223557,0
15.33624,-9.31999,0.7904072,0
15.33621,-9.320004,0.6585369,0
15.33621,-9.320004,0.5267429,0
15.33624,-9.31999,0.39501,0
15.33624,-9.31999,0.2633171,0
15.33621,-9.320004,0.1316471,0
15.33621,-9.320004,0,0
15.33621,-9.320004,-0.1316509,0
15.33621,-9.320004,-0.263319,0
15.33621,-9.320004,-0.3950138,0
15.33621,-9.320004,-0.5267487,0
15.33619,-9.319951,-0.6585426,0
15.33619,-9.319951,-0.7904072,0
15.33619,-9.319951,-0.9223557,0
14.78183,-8.983093,-1.016294,0
13.71103,-8.332371,-1.060831,0
12.78408,-7.769029,-1.099386,0
11.8217,-7.184191,-1.118711,0
11.09609,-6.7432,-1.145975,0
10.54031,-6.405451,-1.179825,0
10.02462,-6.092078,-1.209002,0
9.526374,-5.789284,-1.231621,0
9.495137,-5.770303,-1.310158,0
9.445225,-5.739953,-1.38555,0
8.979027,-5.456671,-1.395523,0
8.555871,-5.19949,-1.404573,0
8.170065,-4.965047,-1.412825,0
7.816835,-4.750384,-1.420382,0
7.492135,-4.553051,-1.427326,0
7.192695,-4.371073,-1.433733,0
6.915561,-4.202656,-1.439661,0
6.658384,-4.04637,-1.445162,0
6.41899,-3.900896,-1.450281,0
6.19559,-3.765124,-1.455059,0
5.986651,-3.638154,-1.459528,0
5.790776,-3.519147,-1.463718,0
5.606736,-3.407313,-1.467657,0
5.433469,-3.301979,-1.471361,0
15.27663,-9.320301,4.279787,0
15.27663,-9.320301,4.141237,0
15.27666,-9.320354,4.003164,0
15.27663,-9.320301,3.86554,0
15.27663,-9.320301,3.728352,0
15.27666,-9.320354,3.591581,0
15.27663,-9.320301,3.455214,0
15.27663,-9.320301,3.319235,0
15.27663,-9.320301,3.183622,0
15.27663,-9.320301,3.048365,0
15.27663,-9.320301,2.913443,0
15.27663,-9.320301,2.778845,0
15.27666,-9.320354,2.644548,0
