6.270186,8.823036,0.4767284,0
6.270186,8.823036,0.3971958,0
6.270186,8.823036,0.3177052,0
6.270186,8.823036,0.2382488,0
6.270186,8.823036,0.1588192,0
6.270186,8.823036,0.07940483,0
6.270186,8.823036,-1.907349E-06,0
6.270186,8.823036,-0.07940483,0
6.270186,8.823036,-0.1588192,0
6.27016,8.823021,-0.2382488,0
6.270186,8.823036,-0.3177071,0
6.270186,8.823036,-0.3971977,0
6.270186,8.823036,-0.4767303,0
6.270186,8.823036,-0.5563164,0
6.270186,8.823036,-0.6359615,0
6.270186,8.823036,-0.7156754,0
6.270186,8.823036,-0.7954655,0
6.270186,8.823036,-0.8753433,0
6.270186,8.823036,-0.9553165,0
6.270186,8.823036,-1.035391,0
6.270186,8.823036,-1.11558,0
6.270186,8.823036,-1.195889,0
6.270186,8.823036,-1.276329,0
6.270186,8.823036,-1.356907,0
6.08582,8.563622,-1.395363,0
5.820417,8.190169,-1.409594,0
5.57671,7.847245,-1.422663,0
5.352125,7.531219,-1.434702,0
5.144475,7.239022,-1.445837,0
4.951887,6.968036,-1.456163,0
4.772775,6.716004,-1.465767,0
4.605762,6.480927,-1.474722,0
4.449621,6.261229,-1.483095,0
4.302483,6.054155,-1.490646,0
4.164161,5.859534,-1.497663,0
4.034088,5.6765,-1.504265,0
4.003754,5.633827,-1.546108,0
4.003754,5.633827,-1.599436,0
6.293429,8.823054,2.591879,0
6.293429,8.823054,2.507975,0
6.293429,8.823054,2.424355,0
6.293429,8.823054,2.341009,0
6.293429,8.823054,2.257925,0
6.293429,8.823054,2.175097,0
6.293429,8.823054,2.092512,0
6.293429,8.823054,2.01016,0
6.293429,8.823054,1.928032,0
6.293429,8.823054,1.846117,0
6.293429,8.823054,1.76441,0
6.293429,8.823054,1.682894,0
6.293429,8.823054,1.601566,0
6.293429,8.823054,1.520412,0
6.293429,8.823054,1.439428,0
6.293429,8.823054,1.358599,0
6.293429,8.823054,1.27792,0
6.293429,8.823054,1.19738,0
6.293429,8.823054,1.11697,0
6.293429,8.823054,1.036682,0
6.293429,8.823054,0.9565067,0
6.293429,8.823054,0.8764343,0
6.293429,8.823054,0.7964573,0
6.293429,8.823054,0.7165661,0
6.293429,8.823054,0.636755,0
6.293429,8.823054,0.5570087,0
6.293429,8.823054,0.4773273,0
6.293429,8.823054,0.3976917,0
6.293429,8.823054,0.3181038,0
6.293429,8.823054,0.2385464,0
6.293429,8.823054,0.1590176,0
6.293429,8.823054,0.07950401,0
6.293429,8.823054,0,0
6.293429,8.823054,-0.07950401,0
6.293429,8.823054,-0.1590176,0
6.293429,8.823054,-0.2385464,0
6.293429,8.823054,-0.3181038,0
6.293429,8.823054,-0.3976936,0
6.293429,8.823054,-0.4773254,0
6.293429,8.823054,-0.5570087,0
6.293429,8.823054,-0.636755,0
6.293429,8.823054,-0.7165699,0
6.293429,8.823054,-0.7964592,0
6.293429,8.823054,-0.8764362,0
6.293429,8.823054,-0.9565086,0
6.293456,8.823069,-1.036684,0
6.293429,8.823054,-1.116972,0
6.293456,8.823069,-1.197382,0
6.293456,8.823069,-1.277924,0
6.293456,8.823069,-1.358603,0
6.100443,8.552546,-1.395292,0
5.834394,8.179576,-1.409525,0
5.590125,7.837109,-1.422594,0
5.365033,7.521502,-1.434637,0
5.156877,7.229724,-1.445776,0
4.963868,6.959064,-1.456102,0
4.784335,6.70736,-1.465708,0
4.616871,6.472662,-1.474665,0
4.460364,6.253252,-1.48304,0
4.312783,6.046354,-1.490564,0
4.174152,5.851982,-1.497587,0
4.043769,5.669196,-1.504189,0
4.018581,5.633916,-1.548052,0
4.01861,5.633862,-1.601446,0
6.316726,8.823102,2.595127,0
6.316726,8.823102,2.511118,0
6.316726,8.823102,2.427393,0
6.316726,8.823102,2.343941,0
6.316726,8.823102,2.260756,0
6.316726,8.823102,2.177824,0
6.316726,8.823102,2.095133,0
6.316726,8.823102,2.01268,0
6.316726,8.823102,1.930449,0
6.316726,8.823102,1.848433,0
6.316726,8.823102,1.766621,0
6.316726,8.823102,1.685003,0
6.316726,8.823102,1.603573,0
6.316726,8.823102,1.522318,0
6.316726,8.823102,1.441233,0
6.316726,8.823102,1.360302,0
6.316726,8.823102,1.279522,0
6.316726,8.823102,1.198881,0
6.316726,8.823102,1.118368,0
6.316726,8.823102,1.037981,0
6.316726,8.823102,0.9577045,0
6.316726,8.823102,0.877533,0
6.316726,8.823102,0.7974548,0
6.316726,8.823102,0.7174664,0
6.316726,8.823102,0.6375523,0
6.316726,8.823102,0.5577068,0
6.316726,8.823102,0.4779224,0
6.316726,8.823102,0.3981915,0
6.316726,8.823102,0.3185024,0
6.316726,8.823102,0.2388458,0
6.316726,8.823102,0.1592159,0
6.316726,8.823102,0.0796032,0
6.316726,8.823102,-1.907349E-06,0
6.316726,8.823102,-0.0796051,0
6.316726,8.823102,-0.1592178,0
6.316726,8.823102,-0.2388477,0
6.316726,8.823102,-0.3185024,0
6.316726,8.823102,-0.3981934,0
6.316726,8.823102,-0.4779263,0
6.316726,8.823102,-0.5577087,0
6.316726,8.823102,-0.6375542,0
6.316726,8.823102,-0.7174664,0
6.316726,8.823102,-0.7974567,0
6.316726,8.823102,-0.8775349,0
6.316726,8.823102,-0.9577084,0
6.316726,8.823102,-1.037983,0
6.316726,8.823102,-1.118372,0
6.316753,8.823116,-1.198885,0
6.316726,8.823102,-1.279526,0
6.316726,8.823102,-1.360306,0
6.115038,8.541455,-1.395222,0
5.848398,8.168998,-1.409456,0
5.603539,7.826974,-1.422529,0
5.377941,7.511786,-1.434576,0
5.169281,7.220359,-1.445711,0
4.975765,6.950118,-1.456041,0
4.795811,6.69874,-1.465649,0
4.62801,6.464345,-1.474609,0
4.471111,6.245207,-1.482985,0
4.323112,6.038499,-1.490488,0
4.184146,5.844361,-1.497511,0
4.053454,5.661824,-1.504114,0
4.033519,5.633995,-1.550005,0
4.033519,5.633995,-1.603468,0
6.340076,8.823179,2.598392,0
6.340076,8.823179,2.514277,0
6.340076,8.823179,2.430449,0
6.340076,8.823179,2.346891,0
6.340076,8.823179,2.263601,0
6.340076,8.823179,2.180565,0
6.340076,8.823179,2.097771,0
6.340076,8.823179,2.015211,0
6.340076,8.823179,1.932878,0
6.340076,8.823179,1.850758,0
6.340049,8.823164,1.768845,0
6.340076,8.823179,1.687124,0
6.340076,8.823179,1.605591,0
6.340076,8.823179,1.524235,0
6.340076,8.823179,1.443047,0
6.340076,8.823179,1.362015,0
6.340076,8.823179,1.281132,0
6.340076,8.823179,1.200388,0
6.340076,8.823179,1.119778,0
6.340076,8.823179,1.039289,0
6.340076,8.823179,0.95891,0
6.340076,8.823179,0.8786373,0
6.340049,8.823164,0.79846,0
6.340076,8.823179,0.7183685,0
6.340076,8.823179,0.6383553,0
6.340076,8.823179,0.5584087,0
6.340076,8.823179,0.4785252,0
6.340076,8.823179,0.3986912,0
6.340076,8.823179,0.318903,0
6.340076,8.823179,0.2391472,0
6.340076,8.823179,0.1594162,0
6.340076,8.823179,0.07970428,0
6.340076,8.823179,0,0
6.340076,8.823179,-0.07970428,0
6.340076,8.823179,-0.1594181,0
6.340076,8.823179,-0.2391472,0
6.340076,8.823179,-0.318903,0
6.340076,8.823179,-0.3986931,0
6.340076,8.823179,-0.4785252,0
6.340076,8.823179,-0.5584106,0
6.340076,8.823179,-0.6383553,0
6.340076,8.823179,-0.7183704,0
6.340076,8.823179,-0.79846,0
6.340076,8.823179,-0.8786373,0
6.340076,8.823179,-0.9589119,0
6.340076,8.823179,-1.039289,0
6.340076,8.823179,-1.11978,0
6.340076,8.823179,-1.200392,0
6.340076,8.823179,-1.281134,0
6.340103,8.823194,-1.362017,0
6.129663,8.530312,-1.395151,0
5.862378,8.158337,-1.409389,0
5.616928,7.816824,-1.422462,0
5.390767,7.502094,-1.434511,0
5.181656,7.211047,-1.445652,0
4.98772,6.941133,-1.455984,0
4.807343,6.690082,-1.465591,0
4.639094,6.455997,-1.474554,0
4.48183,6.237147,-1.482925,0
4.333415,6.03063,-1.49041,0
4.19414,5.83674,-1.497437,0
4.063138,5.654451,-1.504042,0
4.048456,5.634074,-1.551968,0
4.048456,5.634074,-1.605497,0
6.363508,8.823231,2.601673,0
6.363508,8.823231,2.517452,0
6.363508,8.823231,2.433516,0
6.363508,8.823231,2.349855,0
6.363508,8.823231,2.266459,0
6.363482,8.823217,2.183317,0
6.363508,8.823231,2.10042,0
6.363508,8.823231,2.017756,0
6.363508,8.823231,1.935318,0
6.363508,8.823231,1.853094,0
6.363508,8.823231,1.771076,0
6.363508,8.823231,1.689253,0
6.363508,8.823231,1.607618,0
6.363508,8.823231,1.526159,0
6.363508,8.823231,1.444868,0
6.363508,8.823231,1.363733,0
6.363508,8.823231,1.282749,0
6.363508,8.823231,1.201904,0
6.363508,8.823231,1.121191,0
6.363508,8.823231,1.0406,0
6.363508,8.823231,0.9601192,0
6.363508,8.823231,0.8797474,0
6.363508,8.823231,0.7994671,0
6.363508,8.823231,0.7192745,0
6.363508,8.823231,0.6391602,0
6.363482,8.823217,0.5591145,0
6.363508,8.823231,0.4791279,0
6.363508,8.823231,0.3991947,0
6.363508,8.823231,0.3193035,0
6.363508,8.823231,0.2394466,0
6.363508,8.823231,0.1596165,0
6.363508,8.823231,0.07980537,0
6.363508,8.823231,-1.907349E-06,0
6.363508,8.823231,-0.07980537,0
6.363508,8.823231,-0.1596184,0
6.363508,8.823231,-0.2394505,0
6.363508,8.823231,-0.3193073,0
6.363508,8.823231,-0.3991966,0
6.363508,8.823231,-0.4791298,0
6.363508,8.823231,-0.5591164,0
6.363508,8.823231,-0.6391621,0
6.363482,8.823217,-0.7192764,0
6.363508,8.823231,-0.799469,0
6.363508,8.823231,-0.8797474,0
6.363508,8.823231,-0.9601231,0
6.363508,8.823231,-1.040602,0
6.363508,8.823231,-1.121193,0
6.363508,8.823231,-1.201908,0
6.363508,8.823231,-1.282751,0
6.363508,8.823231,-1.363737,0
6.144207,8.519192,-1.395082,0
5.876329,8.147728,-1.409323,0
5.630317,7.806674,-1.4224,0
5.403622,7.492348,-1.434448,0
5.194034,7.201667,-1.445591,0
4.99962,6.932118,-1.455925,0
4.818794,6.681447,-1.465534,0
4.650178,6.44765,-1.474497,0
4.492472,6.228976,-1.482847,0
4.343691,6.022745,-1.490334,0
4.204104,5.829172,-1.49736,0
4.072795,5.647064,-1.503969,0
4.063449,5.634114,-1.553938,0
4.063449,5.634114,-1.607538,0
6.386968,8.823299,2.604971,0
6.386968,8.823299,2.520643,0
6.386968,8.823299,2.436602,0
6.386968,8.823299,2.352833,0
6.386968,8.823299,2.269331,0
6.386968,8.823299,2.186083,0
6.386968,8.823299,2.103081,0
6.386968,8.823299,2.020315,0
6.386941,8.823284,1.937773,0
6.386968,8.823299,1.855444,0
6.386968,8.823299,1.773321,0
6.386968,8.823299,1.691395,0
6.386968,8.823299,1.609655,0
6.386941,8.823284,1.528095,0
6.386968,8.823299,1.446699,0
6.386968,8.823299,1.365461,0
6.386968,8.823299,1.284376,0
6.386968,8.823299,1.203428,0
6.386968,8.823299,1.122612,0
6.386968,8.823299,1.041918,0
6.386968,8.823299,0.961338,0
6.386968,8.823299,0.8808613,0
6.386941,8.823284,0.8004818,0
6.386941,8.823284,0.7201881,0
6.386968,8.823299,0.6399689,0
6.386968,8.823299,0.559824,0
6.386968,8.823299,0.4797363,0
6.386968,8.823299,0.3997002,0
6.386968,8.823299,0.3197079,0
6.386968,8.823299,0.2397518,0
6.386968,8.823299,0.1598186,0
6.386968,8.823299,0.07990456,0
6.386968,8.823299,-1.907349E-06,0
6.386968,8.823299,-0.07990646,0
6.386968,8.823299,-0.1598225,0
6.386968,8.823299,-0.2397537,0
6.386968,8.823299,-0.3197117,0
6.386968,8.823299,-0.3997021,0
6.386968,8.823299,-0.4797382,0
6.386968,8.823299,-0.559824,0
6.386941,8.823284,-0.6399708,0
6.386968,8.823299,-0.7201881,0
6.386968,8.823299,-0.8004818,0
6.386968,8.823299,-0.8808632,0
6.386968,8.823299,-0.96134,0
6.386968,8.823299,-1.04192,0
6.386968,8.823299,-1.122614,0
6.386968,8.823299,-1.203432,0
6.386968,8.823299,-1.28438,0
6.386968,8.823299,-1.365465,0
6.158778,8.508018,-1.395014,0
5.890253,8.137105,-1.409256,0
5.64368,7.796441,-1.422335,0
5.416451,7.482588,-1.434387,0
5.206356,7.192327,-1.44553,0
5.011491,6.923158,-1.455866,0
4.830273,6.672759,-1.465479,0
4.661263,6.439303,-1.474443,0
4.503086,6.22079,-1.482769,0
4.353997,6.014808,-1.490257,0
4.214044,5.821522,-1.497286,0
4.082454,5.639677,-1.503897,0
4.078496,5.634183,-1.55592,0
4.078496,5.634183,-1.609587,0
6.41051,8.823341,2.608286,0
6.41051,8.823341,2.523849,0
6.41051,8.823341,2.439699,0
6.410482,8.823327,2.355827,0
6.410482,8.823327,2.272219,0
6.41051,8.823341,2.188864,0
6.410482,8.823327,2.105757,0
6.41051,8.823341,2.022884,0
6.410482,8.823327,1.940237,0
6.410482,8.823327,1.857805,0
6.41051,8.823341,1.775578,0
6.410482,8.823327,1.693548,0
6.410482,8.823327,1.611704,0
6.41051,8.823341,1.530037,0
6.41051,8.823341,1.448538,0
6.410482,8.823327,1.367199,0
6.41051,8.823341,1.286009,0
6.410482,8.823327,1.204958,0
6.41051,8.823341,1.124041,0
6.41051,8.823341,1.043245,0
6.410482,8.823327,0.9625626,0
6.410482,8.823327,0.8819828,0
6.41051,8.823341,0.8015003,0
6.41051,8.823341,0.7211018,0
6.410482,8.823327,0.6407852,0
6.41051,8.823341,0.5605354,0
6.410482,8.823327,0.4803467,0
6.41051,8.823341,0.4002094,0
6.410482,8.823327,0.320116,0
6.41051,8.823341,0.240057,0
6.410482,8.823327,0.1600246,0
6.41051,8.823341,0.08000755,0
6.410482,8.823327,0,0
6.410482,8.823327,-0.08000755,0
6.41051,8.823341,-0.1600246,0
6.410482,8.823327,-0.240057,0
6.41051,8.823341,-0.320118,0
6.410482,8.823327,-0.4002094,0
6.41051,8.823341,-0.4803486,0
6.410482,8.823327,-0.5605354,0
6.410482,8.823327,-0.6407852,0
6.410482,8.823327,-0.7211037,0
6.41051,8.823341,-0.8015003,0
6.41051,8.823341,-0.8819828,0
6.41051,8.823341,-0.9625626,0
6.41051,8.823341,-1.043245,0
6.41051,8.823341,-1.124043,0
6.41051,8.823341,-1.204962,0
6.41051,8.823341,-1.286011,0
6.41051,8.823341,-1.367203,0
6.173321,8.496899,-1.394947,0
5.90418,8.126414,-1.409191,0
5.657015,7.786262,-1.422272,0
5.429281,7.47276,-1.434324,0
5.218679,7.182917,-1.445473,0
5.023394,6.914074,-1.455809,0
4.841725,6.664056,-1.465424,0
4.672294,6.430927,-1.47439,0
4.5137,6.212604,-1.482689,0
4.364273,6.006924,-1.490181,0
4.223984,5.813872,-1.497213,0
4.093544,5.634253,-1.504354,0
4.093544,5.634253,-1.557913,0
4.093544,5.634253,-1.611649,0
6.434108,8.823345,2.611616,0
6.434108,8.823345,2.527071,0
6.434108,8.823345,2.442814,0
6.434108,8.823345,2.358835,0
6.434108,8.823345,2.27512,0
6.434108,8.823345,2.19166,0
6.434108,8.823345,2.108446,0
6.434108,8.823345,2.025467,0
6.434108,8.823345,1.942713,0
6.434108,8.823345,1.860178,0
6.434108,8.823345,1.777845,0
6.434108,8.823345,1.695709,0
6.434081,8.82333,1.61376,0
6.434108,8.823345,1.53199,0
6.434108,8.823345,1.450388,0
6.434108,8.823345,1.368944,0
6.434108,8.823345,1.287651,0
6.434108,8.823345,1.206497,0
6.434108,8.823345,1.125475,0
6.434108,8.823345,1.044577,0
6.434108,8.823345,0.963789,0
6.434108,8.823345,0.8831081,0
6.434108,8.823345,0.8025227,0
6.434108,8.823345,0.7220249,0
6.434108,8.823345,0.6416016,0
6.434108,8.823345,0.5612507,0
6.434108,8.823345,0.4809589,0
6.434108,8.823345,0.4007206,0
6.434108,8.823345,0.3205242,0
6.434108,8.823345,0.2403622,0
6.434108,8.823345,0.1602268,0
6.434108,8.823345,0.08010864,0
6.434108,8.823345,-1.907349E-06,0
6.434108,8.823345,-0.08011055,0
6.434108,8.823345,-0.1602287,0
6.434108,8.823345,-0.240366,0
6.434108,8.823345,-0.3205261,0
6.434108,8.823345,-0.4007225,0
6.434108,8.823345,-0.4809628,0
6.434108,8.823345,-0.5612526,0
6.434108,8.823345,-0.6416035,0
6.434108,8.823345,-0.7220249,0
6.434108,8.823345,-0.8025246,0
6.434108,8.823345,-0.88311,0
6.434108,8.823345,-0.9637909,0
6.434108,8.823345,-1.044579,0
6.434108,8.823345,-1.125479,0
6.434108,8.823345,-1.206499,0
6.434079,8.823399,-1.287653,0
6.434079,8.823399,-1.368948,0
6.187838,8.485696,-1.39488,0
5.918079,8.115709,-1.409128,0
5.670379,7.77603,-1.422209,0
5.442082,7.462985,-1.434265,0
5.231004,7.173508,-1.445414,0
5.035241,6.905031,-1.455751,0
4.853177,6.655353,-1.465368,0
4.683381,6.422512,-1.474337,0
4.524288,6.204403,-1.482613,0
4.374525,5.998957,-1.490107,0
4.233953,5.806169,-1.497139,0
4.108644,5.634351,-1.506287,0
4.108644,5.634351,-1.559916,0
4.108644,5.634351,-1.613718,0
6.457731,8.823431,2.614962,0
6.457731,8.823431,2.53031,0
6.457731,8.823431,2.445946,0
6.457731,8.823431,2.361856,0
6.457731,8.823431,2.278036,0
6.457731,8.823431,2.194469,0
6.457731,8.823431,2.111147,0
6.457731,8.823431,2.028063,0
6.457731,8.823431,1.945202,0
6.457731,8.823431,1.86256,0
6.457731,8.823431,1.780123,0
6.457731,8.823431,1.697884,0
6.457731,8.823431,1.615831,0
6.457731,8.823431,1.533953,0
6.457731,8.823431,1.452246,0
6.457731,8.823431,1.370699,0
6.457731,8.823431,1.289301,0
6.457731,8.823431,1.208044,0
6.457731,8.823431,1.126917,0
6.457731,8.823431,1.045914,0
6.457731,8.823431,0.9650249,0
6.457731,8.823431,0.8842411,0
6.457731,8.823431,0.8035488,0
6.457731,8.823431,0.7229481,0
6.457731,8.823431,0.6424255,0
6.457731,8.823431,0.5619698,0
6.457731,8.823431,0.481575,0
6.457731,8.823431,0.4012337,0
6.457731,8.823431,0.3209343,0
6.457731,8.823431,0.2406712,0
6.457731,8.823431,0.1604328,0
6.457731,8.823431,0.08021164,0
6.457731,8.823431,-1.907349E-06,0
6.457731,8.823431,-0.08021355,0
6.457731,8.823431,-0.1604347,0
6.457731,8.823431,-0.2406731,0
6.457731,8.823431,-0.3209381,0
6.457731,8.823431,-0.4012356,0
6.457731,8.823431,-0.4815788,0
6.457731,8.823431,-0.5619717,0
6.457731,8.823431,-0.6424274,0
6.457731,8.823431,-0.72295,0
6.457731,8.823431,-0.8035526,0
6.457731,8.823431,-0.8842411,0
6.457731,8.823431,-0.9650269,0
6.457731,8.823431,-1.045916,0
6.457731,8.823431,-1.126921,0
6.457731,8.823431,-1.208046,0
6.457731,8.823431,-1.289305,0
6.457758,8.823446,-1.370703,0
6.202356,8.474494,-1.394815,0
5.931978,8.105003,-1.409063,0
5.683689,7.765767,-1.422148,0
5.454885,7.453142,-1.434206,0
5.243328,7.164098,-1.445356,0
5.047114,6.896002,-1.455696,0
4.864603,6.646636,-1.465315,0
4.694386,6.414121,-1.474283,0
4.534905,6.196149,-1.482534,0
4.384747,5.991043,-1.49003,0
4.243867,5.798504,-1.497066,0
4.123774,5.634396,-1.508228,0
4.123774,5.634396,-1.561926,0
4.123774,5.634396,-1.615801,0
6.481465,8.823441,2.618326,0
6.481465,8.823441,2.533566,0
6.481465,8.823441,2.449091,0
6.481465,8.823441,2.364895,0
6.481465,8.823441,2.280966,0
6.481492,8.823455,2.19729,0
6.481465,8.823441,2.113863,0
6.481465,8.823441,2.030672,0
6.481465,8.823441,1.947704,0
6.481492,8.823455,1.864954,0
6.481465,8.823441,1.782412,0
6.481465,8.823441,1.700066,0
6.481465,8.823441,1.617907,0
6.481465,8.823441,1.535925,0
6.481465,8.823441,1.454115,0
6.481465,8.823441,1.372461,0
6.481492,8.823455,1.29096,0
6.481465,8.823441,1.209597,0
6.481465,8.823441,1.128366,0
6.481465,8.823441,1.04726,0
6.481465,8.823441,0.9662647,0
6.481465,8.823441,0.8853779,0
6.481465,8.823441,0.8045826,0
6.481465,8.823441,0.7238789,0
6.481465,8.823441,0.6432514,0
6.481465,8.823441,0.5626926,0
6.481492,8.823455,0.4821949,0
6.481465,8.823441,0.4017506,0
6.481465,8.823441,0.3213482,0
6.481465,8.823441,0.2409801,0
6.481465,8.823441,0.1606388,0
6.481465,8.823441,0.08031464,0
6.481465,8.823441,-1.907349E-06,0
6.481465,8.823441,-0.08031654,0
6.481465,8.823441,-0.1606407,0
6.481465,8.823441,-0.2409821,0
6.481465,8.823441,-0.3213482,0
6.481465,8.823441,-0.4017506,0
6.481492,8.823455,-0.4821968,0
6.481465,8.823441,-0.5626945,0
6.481465,8.823441,-0.6432533,0
6.481492,8.823455,-0.7238808,0
6.481465,8.823441,-0.8045864,0
6.481492,8.823455,-0.8853798,0
6.481492,8.823455,-0.9662685,0
6.481492,8.823455,-1.047262,0
6.481492,8.823455,-1.12837,0
6.481492,8.823455,-1.2096,0
6.481492,8.823455,-1.290962,0
6.481492,8.823455,-1.372465,0
6.21685,8.463209,-1.394751,0
5.945851,8.094284,-1.409,0
5.696999,7.755506,-1.422087,0
5.467633,7.443338,-1.434147,0
5.255598,7.15466,-1.445299,0
5.058934,6.886943,-1.455641,0
4.876001,6.637904,-1.465261,0
4.705419,6.405677,-1.474232,0
4.545466,6.187933,-1.482458,0
4.394999,5.983077,-1.489956,0
4.25378,5.790839,-1.496994,0
4.138928,5.634524,-1.51018,0
4.138928,5.634524,-1.563948,0
4.138928,5.634524,-1.617889,0
6.505224,8.823532,2.621706,0
6.505224,8.823532,2.536835,0
6.505224,8.823532,2.452253,0
6.505224,8.823532,2.367949,0
6.505224,8.823532,2.283909,0
6.505224,8.823532,2.200127,0
6.505224,8.823532,2.11659,0
6.505224,8.823532,2.033293,0
6.505224,8.823532,1.95022,0
6.505224,8.823532,1.867363,0
6.505224,8.823532,1.784714,0
6.505224,8.823532,1.702261,0
6.505224,8.823532,1.619995,0
6.505224,8.823532,1.537909,0
6.505224,8.823532,1.455992,0
6.505224,8.823532,1.374235,0
6.505224,8.823532,1.292625,0
6.505224,8.823532,1.211159,0
6.505224,8.823532,1.129824,0
6.505224,8.823532,1.048613,0
6.505224,8.823532,0.9675121,0
6.505224,8.823532,0.8865204,0
6.505224,8.823532,0.805624,0
6.505224,8.823532,0.7248135,0
6.505224,8.823532,0.6440811,0
6.505224,8.823532,0.5634193,0
6.505224,8.823532,0.4828167,0
6.505224,8.823532,0.4022694,0
6.505224,8.823532,0.3217621,0
6.505224,8.823532,0.241291,0
6.505224,8.823532,0.1608467,0
6.505224,8.823532,0.08041763,0
6.505224,8.823532,-1.907349E-06,0
6.505224,8.823532,-0.08041954,0
6.505224,8.823532,-0.1608486,0
6.505224,8.823532,-0.241293,0
6.505224,8.823532,-0.321764,0
6.505224,8.823532,-0.4022694,0
6.505224,8.823532,-0.4828205,0
6.505224,8.823532,-0.5634212,0
6.505224,8.823532,-0.644083,0
6.505224,8.823532,-0.7248154,0
6.505224,8.823532,-0.805624,0
6.505224,8.823532,-0.8865223,0
6.505224,8.823532,-0.9675159,0
6.505224,8.823532,-1.048615,0
6.505224,8.823532,-1.129827,0
6.505224,8.823532,-1.211161,0
6.505251,8.823546,-1.292629,0
6.505224,8.823532,-1.374237,0
6.231315,8.451977,-1.394686,0
5.959697,8.083549,-1.408939,0
5.710282,7.745229,-1.422028,0
5.480411,7.43348,-1.43409,0
5.267898,7.145168,-1.445242,0
5.070756,6.877816,-1.455587,0
4.887429,6.629118,-1.465208,0
4.716425,6.397218,-1.47418,0
4.55603,6.179649,-1.482382,0
4.405224,5.975095,-1.489883,0
4.263669,5.783092,-1.496923,0
4.154194,5.634573,-1.512142,0
4.154194,5.634573,-1.565979,0
4.154194,5.634573,-1.619993,0
6.529095,8.823545,2.625101,0
6.529095,8.823545,2.540121,0
6.529095,8.823545,2.455431,0
6.529095,8.823545,2.371016,0
6.529095,8.823545,2.286867,0
6.529095,8.823545,2.202978,0
6.529095,8.823545,2.119333,0
6.529095,8.823545,2.035929,0
6.529095,8.823545,1.952745,0
6.529095,8.823545,1.869783,0
6.529095,8.823545,1.787027,0
6.529068,8.82353,1.704468,0
6.529095,8.823545,1.622095,0
6.529068,8.82353,1.539904,0
6.529095,8.823545,1.457876,0
6.529095,8.823545,1.376015,0
6.529095,8.823545,1.294302,0
6.529095,8.823545,1.212729,0
6.529095,8.823545,1.131287,0
6.529095,8.823545,1.049971,0
6.529095,8.823545,0.9687672,0
6.529095,8.823545,0.8876686,0
6.529095,8.823545,0.8066692,0
6.529095,8.823545,0.7257519,0
6.529095,8.823545,0.6449146,0
6.529095,8.823545,0.5641499,0
6.529095,8.823545,0.4834442,0
6.529095,8.823545,0.4027882,0
6.529095,8.823545,0.3221798,0
6.529095,8.823545,0.2416039,0
6.529095,8.823545,0.1610546,0
6.529095,8.823545,0.08052254,0
6.529095,8.823545,0,0
6.529095,8.823545,-0.08052444,0
6.529095,8.823545,-0.1610565,0
6.529068,8.82353,-0.2416058,0
6.529068,8.82353,-0.3221798,0
6.529095,8.823545,-0.402792,0
6.529095,8.823545,-0.4834461,0
6.529095,8.823545,-0.5641499,0
6.529095,8.823545,-0.6449184,0
6.529095,8.823545,-0.7257538,0
6.529095,8.823545,-0.8066673,0
6.529095,8.823545,-0.8876705,0
6.529095,8.823545,-0.9687691,0
6.529095,8.823545,-1.049973,0
6.529066,8.823599,-1.13129,0
6.529095,8.823545,-1.21273,0
6.529093,8.823613,-1.294304,0
6.529093,8.823613,-1.376019,0
6.245781,8.440678,-1.394621,0
5.973516,8.0728,-1.408876,0
5.723539,7.734938,-1.421968,0
5.49316,7.423608,-1.434031,0
5.280141,7.135715,-1.445187,0
5.082579,6.86869,-1.455534,0
4.898801,6.620372,-1.465157,0
4.727432,6.388758,-1.474129,0
4.566593,6.171366,-1.482307,0
4.415422,5.967099,-1.489809,0
4.273529,5.775397,-1.496851,0
4.169431,5.634677,-1.514114,0
4.169431,5.634677,-1.568022,0
4.169431,5.634677,-1.622103,0
6.552964,8.823627,2.628515,0
6.552964,8.823627,2.543425,0
6.552964,8.823627,2.458624,0
6.552991,8.823642,2.374098,0
6.552964,8.823627,2.289843,0
6.552964,8.823627,2.205843,0
6.552964,8.823627,2.122089,0
6.552964,8.823627,2.038574,0
6.552991,8.823642,1.955284,0
6.552964,8.823627,1.872213,0
6.552991,8.823642,1.789349,0
6.552991,8.823642,1.706682,0
6.552964,8.823627,1.624205,0
6.552964,8.823627,1.541904,0
6.552964,8.823627,1.459774,0
6.552964,8.823627,1.377804,0
6.552964,8.823627,1.295982,0
6.552991,8.823642,1.214304,0
6.552991,8.823642,1.132757,0
6.552964,8.823627,1.051336,0
6.552964,8.823627,0.970026,0
6.552991,8.823642,0.8888226,0
6.552991,8.823642,0.8077145,0
6.552964,8.823627,0.726696,0
6.552991,8.823642,0.6457539,0
6.552964,8.823627,0.5648823,0
6.552964,8.823627,0.4840717,0
6.552964,8.823627,0.4033127,0
6.552991,8.823642,0.3225975,0
6.552991,8.823642,0.2419186,0
6.552964,8.823627,0.1612644,0
6.552964,8.823627,0.08062553,0
6.552991,8.823642,-1.907349E-06,0
6.552991,8.823642,-0.08062935,0
6.552964,8.823627,-0.1612663,0
6.552991,8.823642,-0.2419205,0
6.552964,8.823627,-0.3225994,0
6.552991,8.823642,-0.4033165,0
6.552991,8.823642,-0.4840755,0
6.552964,8.823627,-0.5648842,0
6.552964,8.823627,-0.6457558,0
6.552964,8.823627,-0.7266979,0
6.552991,8.823642,-0.8077164,0
6.552991,8.823642,-0.8888245,0
6.552991,8.823642,-0.9700298,0
6.552991,8.823642,-1.051338,0
6.552991,8.823642,-1.132761,0
6.552991,8.823642,-1.214308,0
6.552991,8.823642,-1.295988,0
6.552991,8.823642,-1.377806,0
6.260219,8.429431,-1.39456,0
5.987365,8.061997,-1.408817,0
5.736796,7.724647,-1.421909,0
5.505884,7.413722,-1.433975,0
5.292387,7.126194,-1.445131,0
5.094374,6.859549,-1.455481,0
4.910175,6.611557,-1.465103,0
4.738412,6.380285,-1.474079,0
4.57713,6.163068,-1.482233,0
4.42562,5.959103,-1.489737,0
4.283417,5.76765,-1.49678,0
4.184724,5.634741,-1.516094,0
4.184697,5.634727,-1.57007,0
4.184724,5.634741,-1.624228,0
6.576915,8.823685,2.631948,0
6.576915,8.823685,2.546743,0
6.576941,8.823699,2.461832,0
6.576941,8.823699,2.377195,0
6.576941,8.823699,2.292831,0
6.576915,8.823685,2.208721,0
6.576941,8.823699,2.124859,0
6.576915,8.823685,2.041235,0
6.576915,8.823685,1.957838,0
6.576915,8.823685,1.874659,0
6.576915,8.823685,1.791685,0
6.576941,8.823699,1.70891,0
6.576941,8.823699,1.626324,0
6.576944,8.82363,1.543917,0
6.576915,8.823685,1.461679,0
6.576941,8.823699,1.379601,0
6.576941,8.823699,1.297674,0
6.576941,8.823699,1.215889,0
6.576941,8.823699,1.134237,0
6.576941,8.823699,1.052708,0
6.576941,8.823699,0.9712925,0
6.576915,8.823685,0.8899841,0
6.576915,8.823685,0.8087711,0
6.576915,8.823685,0.727644,0
6.576915,8.823685,0.6465969,0
6.576941,8.823699,0.5656204,0
6.576941,8.823699,0.4847031,0
6.576941,8.823699,0.4038391,0
6.576941,8.823699,0.323019,0
6.576915,8.823685,0.2422352,0
6.576915,8.823685,0.1614742,0
6.576915,8.823685,0.08073235,0
6.576915,8.823685,0,0
6.576941,8.823699,-0.08073425,0
6.576941,8.823699,-0.1614761,0
6.576941,8.823699,-0.2422371,0
6.576941,8.823699,-0.3230228,0
6.576941,8.823699,-0.4038429,0
6.576941,8.823699,-0.484705,0
6.576941,8.823699,-0.5656223,0
6.576941,8.823699,-0.6465988,0
6.576941,8.823699,-0.7276459,0
6.576941,8.823699,-0.8087711,0
6.576941,8.823699,-0.889986,0
6.576941,8.823699,-0.9712944,0
6.576941,8.823699,-1.05271,0
6.576941,8.823699,-1.134239,0
6.576941,8.823699,-1.215893,0
6.576941,8.823699,-1.297678,0
6.573604,8.819238,-1.378908,0
6.274632,8.418102,-1.394497,0
6.001186,8.05118,-1.408758,0
5.750055,7.714287,-1.42185,0
5.51861,7.403767,-1.43392,0
5.304605,7.116726,-1.445078,0
5.106114,6.850447,-1.455427,0
4.92155,6.602742,-1.465052,0
4.749365,6.371797,-1.47403,0
4.58761,6.154809,-1.482159,0
4.435791,5.951092,-1.489664,0
4.29328,5.759888,-1.49671,0
4.200044,5.63482,-1.518085,0
4.200044,5.63482,-1.572134,0
4.20007,5.634835,-1.62636,0
6.600949,8.823717,2.635393,0
6.600949,8.823717,2.550081,0
6.600949,8.823717,2.465057,0
6.600976,8.823731,2.38031,0
6.600949,8.823717,2.295835,0
6.600976,8.823731,2.211615,0
6.600949,8.823717,2.127642,0
6.600949,8.823717,2.043909,0
6.600949,8.823717,1.960402,0
6.600976,8.823731,1.877111,0
6.600949,8.823717,1.794031,0
6.600949,8.823717,1.711149,0
6.600949,8.823717,1.628454,0
6.600976,8.823731,1.545938,0
6.600976,8.823731,1.463594,0
6.600949,8.823717,1.381409,0
6.600976,8.823731,1.299374,0
6.600949,8.823717,1.217482,0
6.600949,8.823717,1.135723,0
6.600949,8.823717,1.054087,0
6.600976,8.823731,0.9725628,0
6.600949,8.823717,0.8911495,0
6.600949,8.823717,0.8098316,0
6.600949,8.823717,0.7285976,0
6.600976,8.823731,0.6474438,0
6.600949,8.823717,0.5663605,0
6.600976,8.823731,0.4853382,0
6.600949,8.823717,0.4043694,0
6.600949,8.823717,0.3234425,0
6.600949,8.823717,0.2425518,0
6.600949,8.823717,0.1616859,0
6.600976,8.823731,0.08083725,0
6.600949,8.823717,-1.907349E-06,0
6.600976,8.823731,-0.08084106,0
6.600949,8.823717,-0.1616879,0
6.600976,8.823731,-0.2425537,0
6.600949,8.823717,-0.3234444,0
6.600976,8.823731,-0.4043713,0
6.600976,8.823731,-0.4853382,0
6.600949,8.823717,-0.5663624,0
6.600976,8.823731,-0.6474457,0
6.600976,8.823731,-0.7285995,0
6.600976,8.823731,-0.8098316,0
6.600976,8.823731,-0.8911495,0
6.600976,8.823731,-0.9725666,0
6.600976,8.823731,-1.05409,0
6.600976,8.823731,-1.135725,0
6.600976,8.823731,-1.217485,0
6.600976,8.823731,-1.299379,0
6.588721,8.80732,-1.378843,0
6.289046,8.406773,-1.394436,0
6.014952,8.040401,-1.408697,0
5.763287,7.703913,-1.421793,0
5.531306,7.393865,-1.433865,0
5.316824,7.10719,-1.445026,0
5.117912,6.841237,-1.455376,0
4.932897,6.593913,-1.465002,0
4.760318,6.363308,-1.473982,0
4.598149,6.146442,-1.482084,0
4.445936,5.943067,-1.489594,0
4.303142,5.752125,-1.496641,0
4.215446,5.634874,-1.520086,0
4.215446,5.634874,-1.574205,0
4.215446,5.634874,-1.628504,0
6.625064,8.823793,2.638859,0
6.625037,8.82378,2.553434,0
6.625064,8.823793,2.468298,0
6.625064,8.823793,2.38344,0
6.625037,8.82378,2.298853,0
6.625064,8.823793,2.214521,0
6.625037,8.82378,2.13044,0
6.625037,8.82378,2.046595,0
6.625064,8.823793,1.962978,0
6.625064,8.823793,1.87958,0
6.625064,8.823793,1.796391,0
6.625037,8.82378,1.713398,0
6.625064,8.823793,1.630594,0
6.625037,8.82378,1.547972,0
6.625064,8.823793,1.465517,0
6.625037,8.82378,1.383226,0
6.625064,8.823793,1.301083,0
6.625037,8.82378,1.219084,0
6.625064,8.823793,1.137217,0
6.625064,8.823793,1.055471,0
6.625037,8.82378,0.9738445,0
6.625037,8.82378,0.8923206,0
6.625037,8.82378,0.8108959,0
6.625064,8.823793,0.7295551,0
6.625064,8.823793,0.6482944,0
6.625064,8.823793,0.5671062,0
6.625037,8.82378,0.4859772,0
6.625064,8.823793,0.4049015,0
6.625037,8.82378,0.3238697,0
6.625037,8.82378,0.2428722,0
6.625064,8.823793,0.1618996,0
6.625064,8.823793,0.08094597,0
6.625064,8.823793,0,0
6.625037,8.82378,-0.08094597,0
6.625064,8.823793,-0.1618996,0
6.625064,8.823793,-0.2428722,0
6.625037,8.82378,-0.3238697,0
6.625037,8.82378,-0.4049015,0
6.625064,8.823793,-0.4859791,0
6.625064,8.823793,-0.5671062,0
6.625064,8.823793,-0.6482964,0
6.625064,8.823793,-0.729557,0
6.625037,8.82378,-0.8108959,0
6.625064,8.823793,-0.8923225,0
6.625064,8.823793,-0.9738445,0
6.625064,8.823793,-1.055475,0
6.625064,8.823793,-1.137218,0
6.625064,8.823793,-1.219086,0
6.625064,8.823793,-1.301086,0
6.603755,8.795425,-1.378782,0
6.303432,8.39543,-1.394377,0
6.02872,8.029554,-1.40864,0
5.776464,7.693578,-1.42174,0
5.544005,7.383896,-1.433809,0
5.329016,7.097639,-1.444971,0
5.129654,6.832067,-1.455324,0
4.944218,6.585069,-1.464954,0
4.771273,6.354752,-1.473932,0
4.608632,6.138115,-1.482012,0
4.45611,5.934988,-1.489523,0
4.312977,5.744349,-1.496572,0
4.230846,5.634997,-1.522099,0
4.230846,5.634997,-1.576288,0
4.230846,5.634997,-1.630657,0
6.649208,8.823817,2.64234,0
6.649208,8.823817,2.556803,0
6.649208,8.823817,2.471554,0
6.649208,8.823817,2.386585,0
6.649208,8.823817,2.301886,0
6.649208,8.823817,2.217445,0
6.649208,8.823817,2.133249,0
6.649208,8.823817,2.049295,0
6.649208,8.823817,1.965569,0
6.649208,8.823817,1.882059,0
6.649208,8.823817,1.798761,0
6.649208,8.823817,1.715658,0
6.649208,8.823817,1.632746,0
6.649208,8.823817,1.550014,0
6.649208,8.823817,1.467451,0
6.649208,8.823817,1.38505,0
6.649208,8.823817,1.302799,0
6.649208,8.823817,1.220692,0
6.649208,8.823817,1.138716,0
6.649208,8.823817,1.056866,0
6.649208,8.823817,0.9751282,0
6.649208,8.823817,0.8934994,0
6.649208,8.823817,0.811964,0
6.649208,8.823817,0.7305183,0
6.649208,8.823817,0.6491508,0
6.649208,8.823817,0.5678539,0
6.649208,8.823817,0.486618,0
6.649208,8.823817,0.4054356,0
6.649208,8.823817,0.324295,0
6.649208,8.823817,0.2431908,0
6.649208,8.823817,0.1621113,0
6.649208,8.823817,0.08105278,0
6.649208,8.823817,-1.907349E-06,0
6.649208,8.823817,-0.08105278,0
6.649208,8.823817,-0.1621151,0
6.649208,8.823817,-0.2431927,0
6.649208,8.823817,-0.324297,0
6.649208,8.823817,-0.4054356,0
6.649208,8.823817,-0.4866199,0
6.649208,8.823817,-0.5678558,0
6.649208,8.823817,-0.6491528,0
6.649208,8.823817,-0.7305202,0
6.649208,8.823817,-0.8119659,0
6.649208,8.823817,-0.8934994,0
6.649208,8.823817,-0.975132,0
6.649208,8.823817,-1.056868,0
6.649235,8.823832,-1.13872,0
6.649235,8.823832,-1.220695,0
6.649235,8.823832,-1.302801,0
6.618819,8.783477,-1.378721,0
6.317821,8.384018,-1.394318,0
6.042516,8.018655,-1.408583,0
5.789669,7.683189,-1.421682,0
5.556648,7.373965,-1.433758,0
5.341238,7.088035,-1.444921,0
5.141396,6.822896,-1.455275,0
4.955539,6.576225,-1.464905,0
4.782228,6.346195,-1.473885,0
4.619115,6.129787,-1.481939,0
4.466254,5.926963,-1.489452,0
4.322785,5.736557,-1.496504,0
4.246332,5.635028,-1.524118,0
4.246332,5.635028,-1.578382,0
4.246303,5.635081,-1.632822,0
6.673405,8.82387,2.645838,0
6.673405,8.82387,2.560186,0
6.673405,8.82387,2.474827,0
6.673405,8.82387,2.389746,0
6.673405,8.82387,2.304934,0
6.673405,8.82387,2.220381,0
6.673405,8.82387,2.136076,0
6.673405,8.82387,2.05201,0
6.673405,8.82387,1.968172,0
6.673405,8.82387,1.884554,0
6.673405,8.82387,1.801142,0
6.673405,8.82387,1.717932,0
6.673405,8.82387,1.634909,0
6.673405,8.82387,1.552067,0
6.673405,8.82387,1.469395,0
6.673405,8.82387,1.386885,0
6.673405,8.82387,1.304525,0
6.673405,8.82387,1.222307,0
6.673405,8.82387,1.140224,0
6.673405,8.82387,1.058264,0
6.673405,8.82387,0.9764194,0
6.673405,8.82387,0.8946819,0
6.673405,8.82387,0.8130398,0
6.673405,8.82387,0.7314854,0
6.673405,8.82387,0.6500111,0
6.673405,8.82387,0.5686054,0
6.673405,8.82387,0.4872627,0
6.673405,8.82387,0.4059715,0
6.673405,8.82387,0.3247242,0
6.673405,8.82387,0.2435131,0
6.673405,8.82387,0.1623268,0
6.673405,8.82387,0.08115959,0
6.673405,8.82387,-1.907349E-06,0
6.673405,8.82387,-0.08115959,0
6.673405,8.82387,-0.1623287,0
6.673405,8.82387,-0.243515,0
6.673405,8.82387,-0.324728,0
6.673405,8.82387,-0.4059734,0
6.673405,8.82387,-0.4872646,0
6.673405,8.82387,-0.5686073,0
6.673405,8.82387,-0.650013,0
6.673405,8.82387,-0.7314873,0
6.673405,8.82387,-0.8130398,0
6.673405,8.82387,-0.8946819,0
6.673405,8.82387,-0.9764214,0
6.673405,8.82387,-1.058266,0
6.673405,8.82387,-1.140226,0
6.673432,8.823884,-1.222311,0
6.673432,8.823884,-1.304529,0
6.633855,8.771515,-1.378658,0
6.332181,8.37266,-1.394258,0
6.056231,8.007778,-1.408525,0
5.802848,7.672786,-1.421629,0
5.569321,7.363981,-1.433702,0
5.353404,7.07847,-1.444868,0
5.153113,6.813643,-1.455225,0
4.966832,6.567367,-1.464857,0
4.793128,6.337678,-1.473839,0
4.629572,6.121446,-1.481869,0
4.476375,5.918855,-1.489382,0
4.332594,5.728765,-1.496435,0
4.261815,5.635126,-1.52615,0
4.261815,5.635126,-1.580484,0
4.261815,5.635126,-1.634996,0
6.697712,8.823912,2.649355,0
6.697712,8.823912,2.563591,0
6.697712,8.823912,2.478117,0
6.697712,8.823912,2.392921,0
6.697712,8.823912,2.307997,0
6.697712,8.823912,2.223331,0
6.697712,8.823912,2.138914,0
6.697712,8.823912,2.054737,0
6.697712,8.823912,1.970787,0
6.697712,8.823912,1.887056,0
6.697712,8.823912,1.803537,0
6.697712,8.823912,1.720215,0
6.697712,8.823912,1.637081,0
6.697712,8.823912,1.554129,0
6.697712,8.823912,1.471348,0
6.697712,8.823912,1.388727,0
6.697712,8.823912,1.306257,0
6.697712,8.823912,1.223932,0
6.697712,8.823912,1.141741,0
6.697712,8.823912,1.059671,0
6.697712,8.823912,0.9777164,0
6.697712,8.823912,0.8958702,0
6.697712,8.823912,0.8141193,0
6.697712,8.823912,0.7324562,0
6.697712,8.823912,0.6508732,0
6.697712,8.823912,0.5693607,0
6.697712,8.823912,0.4879093,0
6.697712,8.823912,0.4065113,0
6.697712,8.823912,0.3251553,0
6.697712,8.823912,0.2438374,0
6.697712,8.823912,0.1625423,0
6.697712,8.823912,0.0812664,0
6.697712,8.823912,0,0
6.697712,8.823912,-0.08126831,0
6.697712,8.823912,-0.1625443,0
6.697712,8.823912,-0.2438374,0
6.697712,8.823912,-0.3251591,0
6.697712,8.823912,-0.4065113,0
6.697712,8.823912,-0.4879112,0
6.697712,8.823912,-0.5693626,0
6.697712,8.823912,-0.6508751,0
6.697712,8.823912,-0.7324581,0
6.697712,8.823912,-0.8141212,0
6.697712,8.823912,-0.8958721,0
6.697712,8.823912,-0.9777184,0
6.697712,8.823912,-1.059671,0
6.697712,8.823912,-1.141741,0
6.697712,8.823912,-1.223936,0
6.697712,8.823912,-1.306263,0
6.648866,8.759538,-1.378599,0
6.346542,8.361233,-1.394201,0
6.069945,7.996902,-1.40847,0
5.816002,7.6623,-1.421576,0
5.581965,7.353982,-1.433653,0
5.365542,7.068891,-1.444818,0
5.164802,6.804443,-1.455175,0
4.978156,6.558454,-1.464809,0
4.803979,6.328995,-1.473774,0
4.64003,6.113035,-1.481798,0
4.486495,5.910747,-1.489315,0
4.342378,5.720891,-1.49637,0
4.277354,5.635185,-1.528189,0
4.277354,5.635185,-1.582596,0
4.277354,5.635185,-1.637184,0
6.722046,8.823969,2.652889,0
6.722046,8.823969,2.567011,0
6.722046,8.823969,2.481421,0
6.722046,8.823969,2.396112,0
6.722046,8.823969,2.311075,0
6.722046,8.823969,2.226297,0
6.722046,8.823969,2.141768,0
6.722046,8.823969,2.057476,0
6.722046,8.823969,1.973415,0
6.722046,8.823969,1.889574,0
6.722046,8.823969,1.805943,0
6.722046,8.823969,1.722509,0
6.722046,8.823969,1.639265,0
6.722046,8.823969,1.5562,0
6.722046,8.823969,1.47331,0
6.722046,8.823969,1.390579,0
6.722046,8.823969,1.308001,0
6.722046,8.823969,1.225565,0
6.722046,8.823969,1.143261,0
6.722046,8.823969,1.061083,0
6.722046,8.823969,0.9790211,0
6.722046,8.823969,0.8970661,0
6.722046,8.823969,0.8152065,0
6.722046,8.823969,0.7334347,0
6.722046,8.823969,0.6517429,0
6.722046,8.823969,0.5701218,0
6.722046,8.823969,0.4885616,0
6.722046,8.823969,0.407053,0
6.722046,8.823969,0.3255901,0
6.722046,8.823969,0.2441616,0
6.722046,8.823969,0.1627598,0
6.722046,8.823969,0.08137512,0
6.722046,8.823969,0,0
6.722046,8.823969,-0.08137703,0
6.722046,8.823969,-0.1627617,0
6.722046,8.823969,-0.2441635,0
6.722046,8.823969,-0.325592,0
6.722046,8.823969,-0.4070549,0
6.722046,8.823969,-0.4885616,0
6.722046,8.823969,-0.5701237,0
6.722046,8.823969,-0.6517429,0
6.722046,8.823969,-0.7334347,0
6.722046,8.823969,-0.8152084,0
6.722046,8.823969,-0.897068,0
6.722046,8.823969,-0.9790249,0
6.722046,8.823969,-1.061087,0
6.722073,8.823984,-1.143267,0
6.722046,8.823969,-1.225569,0
6.722073,8.823984,-1.308004,0
6.663848,8.747546,-1.378542,0
6.360822,8.349831,-1.394144,0
6.083689,7.985973,-1.408417,0
5.829153,7.651882,-1.421522,0
5.594584,7.343969,-1.433599,0
5.377684,7.059243,-1.444769,0
5.176519,6.79519,-1.455128,0
4.989396,6.549566,-1.464762,0
4.814776,6.320282,-1.4737,0
4.650489,6.104625,-1.481728,0
4.496615,5.902638,-1.489246,0
4.35216,5.713085,-1.496302,0
4.292946,5.635274,-1.530241,0
4.292919,5.63526,-1.584721,0
4.292919,5.63526,-1.63938,0
6.746463,8.824001,2.656441,0
6.746463,8.824001,2.570446,0
6.746463,8.824001,2.484743,0
6.746463,8.824001,2.399321,0
6.746463,8.824001,2.314169,0
6.746463,8.824001,2.229277,0
6.746463,8.824001,2.144634,0
6.746463,8.824001,2.060232,0
6.746463,8.824001,1.976057,0
6.746463,8.824001,1.892103,0
6.746463,8.824001,1.808359,0
6.746463,8.824001,1.724813,0
6.746463,8.824001,1.641459,0
6.746463,8.824001,1.558287,0
6.746463,8.824001,1.475283,0
6.746463,8.824001,1.392441,0
6.746463,8.824001,1.309752,0
6.746463,8.824001,1.227205,0
6.746463,8.824001,1.144793,0
6.746463,8.824001,1.062504,0
6.746463,8.824001,0.9803333,0
6.746463,8.824001,0.8982658,0
6.746463,8.824001,0.8162975,0
6.746463,8.824001,0.7344151,0
6.746463,8.824001,0.6526146,0
6.746463,8.824001,0.5708828,0
6.746463,8.824001,0.4892139,0
6.746463,8.824001,0.4075985,0
6.746463,8.824001,0.326025,0
6.746463,8.824001,0.2444897,0
6.746463,8.824001,0.1629772,0
6.746463,8.824001,0.08148384,0
6.746463,8.824001,-1.907349E-06,0
6.746463,8.824001,-0.08148575,0
6.746463,8.824001,-0.1629791,0
6.746463,8.824001,-0.2444897,0
6.746463,8.824001,-0.3260269,0
6.746463,8.824001,-0.4076004,0
6.746463,8.824001,-0.4892159,0
6.746463,8.824001,-0.5708866,0
6.746463,8.824001,-0.6526165,0
6.746463,8.824001,-0.734417,0
6.746463,8.824001,-0.8162975,0
6.746463,8.824001,-0.8982677,0
6.746463,8.824001,-0.9803333,0
6.746463,8.824001,-1.062506,0
6.746463,8.824001,-1.144794,0
6.746463,8.824001,-1.227207,0
6.746463,8.824001,-1.309755,0
6.678832,8.735554,-1.378485,0
6.37513,8.338375,-1.394087,0
6.097379,7.975015,-1.408361,0
5.842281,7.641382,-1.421471,0
5.607176,7.333941,-1.43355,0
5.389825,7.049595,-1.444719,0
5.188183,6.785908,-1.45508,0
5.000666,6.540625,-1.464716,0
4.825573,6.31157,-1.473629,0
4.660892,6.096253,-1.481657,0
4.506709,5.894516,-1.489178,0
4.361944,5.705211,-1.496237,0
4.308565,5.635377,-1.532301,0
4.308565,5.635377,-1.586855,0
4.308565,5.635377,-1.64159,0
6.770933,8.824064,2.660009,0
6.770933,8.824064,2.5739,0
6.770933,8.824064,2.488081,0
6.770933,8.824064,2.402544,0
6.770933,8.824064,2.317278,0
6.770933,8.824064,2.232271,0
6.770933,8.824064,2.147516,0
6.770933,8.824064,2.063,0
6.770933,8.824064,1.978712,0
6.770933,8.824064,1.894646,0
6.770933,8.824064,1.810789,0
6.770933,8.824064,1.727131,0
6.770933,8.824064,1.643663,0
6.770933,8.824064,1.560379,0
6.770933,8.824064,1.477262,0
6.770933,8.824064,1.394312,0
6.770933,8.824064,1.31151,0
6.770933,8.824064,1.228853,0
6.770933,8.824064,1.14633,0
6.770933,8.824064,1.063932,0
6.770933,8.824064,0.9816494,0
6.770933,8.824064,0.8994732,0
6.770933,8.824064,0.8173943,0
6.770933,8.824064,0.7354031,0
6.770933,8.824064,0.6534901,0
6.770933,8.824064,0.5716515,0
6.770933,8.824064,0.489872,0
6.770933,8.824064,0.408144,0
6.770933,8.824064,0.3264637,0
6.770933,8.824064,0.2448177,0
6.770933,8.824064,0.1631966,0
6.770933,8.824064,0.08159447,0
6.770933,8.824064,-1.907349E-06,0
6.770933,8.824064,-0.08159447,0
6.770933,8.824064,-0.1631985,0
6.770933,8.824064,-0.2448177,0
6.770933,8.824064,-0.3264656,0
6.770933,8.824064,-0.4081478,0
6.770933,8.824064,-0.4898739,0
6.770933,8.824064,-0.5716534,0
6.770933,8.824064,-0.6534939,0
6.770933,8.824064,-0.735405,0
6.770933,8.824064,-0.8173943,0
6.770933,8.824064,-0.8994751,0
6.770933,8.824064,-0.9816513,0
6.770933,8.824064,-1.063934,0
6.77096,8.824079,-1.146334,0
6.77096,8.824079,-1.228857,0
6.77096,8.824079,-1.311516,0
6.693761,8.723534,-1.378426,0
6.389439,8.32692,-1.394033,0
6.11104,7.964109,-1.408308,0
5.855406,7.630949,-1.421419,0
5.619797,7.323859,-1.4335,0
5.401939,7.039932,-1.444672,0
5.199874,6.77664,-1.455034,0
5.011935,6.531684,-1.46467,0
4.836317,6.302828,-1.473557,0
4.671297,6.087814,-1.481588,0
4.516775,5.886378,-1.489111,0
4.371701,5.697322,-1.496172,0
4.324241,5.635442,-1.534374,0
4.324241,5.635442,-1.589001,0
4.324241,5.635442,-1.643806,0
6.795486,8.824101,2.663595,0
6.795486,8.824101,2.577372,0
6.795486,8.824101,2.491438,0
6.795486,8.824101,2.405783,0
6.795486,8.824101,2.320402,0
6.795486,8.824101,2.235281,0
6.795486,8.824101,2.150412,0
6.795486,8.824101,2.065783,0
6.795486,8.824101,1.981382,0
6.795486,8.824101,1.897202,0
6.795486,8.824101,1.813231,0
6.795486,8.824101,1.72946,0
6.795486,8.824101,1.645882,0
6.795486,8.824101,1.562483,0
6.795486,8.824101,1.479256,0
6.795486,8.824101,1.396193,0
6.795486,8.824101,1.31328,0
6.795486,8.824101,1.230513,0
6.795486,8.824101,1.147879,0
6.795486,8.824101,1.065369,0
6.795486,8.824101,0.9829731,0
6.795486,8.824101,0.9006863,0
6.795486,8.824101,0.8184967,0
6.795486,8.824101,0.7363949,0
6.795486,8.824101,0.6543732,0
6.795486,8.824101,0.5724239,0
6.795486,8.824101,0.4905338,0
6.795486,8.824101,0.4086971,0
6.795486,8.824101,0.3269024,0
6.795486,8.824101,0.2451477,0
6.795486,8.824101,0.1634178,0
6.795486,8.824101,0.08170319,0
6.795486,8.824101,0,0
6.795486,8.824101,-0.08170509,0
6.795486,8.824101,-0.1634178,0
6.795486,8.824101,-0.2451477,0
6.795486,8.824101,-0.3269043,0
6.795486,8.824101,-0.4086971,0
6.795486,8.824101,-0.4905338,0
6.795486,8.824101,-0.572422,0
6.795486,8.824101,-0.6543751,0
6.795486,8.824101,-0.7363949,0
6.795486,8.824101,-0.8184986,0
6.795486,8.824101,-0.9006863,0
6.795486,8.824101,-0.9829731,0
6.795486,8.824101,-1.065367,0
6.795486,8.824101,-1.147879,0
6.795486,8.824101,-1.230516,0
6.795486,8.824101,-1.313282,0
6.708719,8.711459,-1.37837,0
6.403723,8.315381,-1.393978,0
6.124702,7.953136,-1.408255,0
5.868507,7.620434,-1.421368,0
5.632362,7.313817,-1.433451,0
5.414027,7.030255,-1.444624,0
5.211512,6.767343,-1.454987,0
5.023178,6.522728,-1.464626,0
4.847087,6.294102,-1.473486,0
4.681702,6.079375,-1.48152,0
4.526814,5.878226,-1.489044,0
4.381485,5.689448,-1.496107,0
4.339943,5.63552,-1.536453,0
4.339943,5.63552,-1.591158,0
4.339916,5.635506,-1.646038,0
6.820065,8.824154,2.6672,0
6.820065,8.824154,2.580858,0
6.820092,8.824168,2.494808,0
6.820065,8.824154,2.409039,0
6.820065,8.824154,2.323544,0
6.820065,8.824154,2.238306,0
6.820065,8.824154,2.153322,0
6.820092,8.824168,2.068577,0
6.820065,8.824154,1.984062,0
6.820065,8.824154,1.899769,0
6.820065,8.824154,1.815683,0
6.820065,8.824154,1.731802,0
6.820065,8.824154,1.648108,0
6.820065,8.824154,1.564598,0
6.820092,8.824168,1.481258,0
6.820092,8.824168,1.398081,0
6.820065,8.824154,1.315058,0
6.820065,8.824154,1.232176,0
6.820065,8.824154,1.149431,0
6.820092,8.824168,1.066809,0
6.820065,8.824154,0.9843025,0
6.820092,8.824168,0.9019032,0
6.820092,8.824168,0.819603,0
6.820065,8.824154,0.7373905,0
6.820065,8.824154,0.6552601,0
6.820065,8.824154,0.5731964,0
6.820065,8.824154,0.4911976,0
6.820092,8.824168,0.4092503,0
6.820065,8.824154,0.3273468,0
6.820065,8.824154,0.2454796,0
6.820065,8.824154,0.1636372,0
6.820065,8.824154,0.08181572,0
6.820065,8.824154,0,0
6.820065,8.824154,-0.08181572,0
6.820065,8.824154,-0.1636391,0
6.820065,8.824154,-0.2454796,0
6.820065,8.824154,-0.3273487,0
6.820065,8.824154,-0.4092503,0
6.820065,8.824154,-0.4911976,0
6.820065,8.824154,-0.5731983,0
6.820092,8.824168,-0.6552601,0
6.820092,8.824168,-0.7373905,0
6.820092,8.824168,-0.8196068,0
6.820092,8.824168,-0.901907,0
6.820092,8.824168,-0.9843044,0
6.820092,8.824168,-1.066811,0
6.820092,8.824168,-1.149431,0
6.820092,8.824168,-1.23218,0
6.820119,8.824183,-1.315062,0
6.723621,8.699424,-1.378313,0
6.417978,8.303896,-1.393927,0
6.13834,7.942148,-1.408205,0
5.88158,7.609904,-1.421316,0
5.644929,7.303706,-1.433401,0
5.426115,7.020577,-1.444576,0
5.223178,6.757992,-1.454941,0
5.034394,6.513757,-1.464582,0
4.85786,6.285306,-1.473415,0
4.692109,6.070868,-1.481453,0
4.536881,5.870089,-1.488977,0
4.391216,5.681544,-1.496042,0
4.355672,5.635613,-1.538546,0
4.355672,5.635613,-1.593323,0
4.355699,5.635628,-1.648279,0
6.844755,8.824196,2.670824,0
6.844755,8.824196,2.584364,0
6.844755,8.824196,2.498198,0
6.844755,8.824196,2.41231,0
6.844755,8.824196,2.326698,0
6.844782,8.824211,2.241346,0
6.844782,8.824211,2.156246,0
6.844782,8.824211,2.071386,0
6.844782,8.824211,1.986757,0
6.844782,8.824211,1.902348,0
6.844755,8.824196,1.81815,0
6.844752,8.824265,1.734152,0
6.844755,8.824196,1.650347,0
6.844755,8.824196,1.566721,0
6.844755,8.824196,1.483271,0
6.844782,8.824211,1.399981,0
6.844755,8.824196,1.316843,0
6.844755,8.824196,1.23385,0
6.844755,8.824196,1.150991,0
6.844755,8.824196,1.068256,0
6.844782,8.824211,0.9856396,0
6.844755,8.824196,0.9031277,0
6.844782,8.824211,0.8207169,0
6.844755,8.824196,0.7383919,0
6.844782,8.824211,0.6561489,0
6.844782,8.824211,0.5739765,0
6.844755,8.824196,0.4918652,0
6.844782,8.824211,0.4098053,0
6.844755,8.824196,0.3277912,0
6.844755,8.824196,0.2458115,0
6.844755,8.824196,0.1638603,0
6.844755,8.824196,0.08192444,0
6.844782,8.824211,-1.907349E-06,0
6.844755,8.824196,-0.08192635,0
6.844782,8.824211,-0.1638622,0
6.844755,8.824196,-0.2458134,0
6.844782,8.824211,-0.3277931,0
6.844782,8.824211,-0.4098072,0
6.844755,8.824196,-0.4918652,0
6.844752,8.824265,-0.5739765,0
6.844782,8.824211,-0.6561489,0
6.844782,8.824211,-0.7383938,0
6.844752,8.824265,-0.8207188,0
6.844752,8.824265,-0.9031315,0
6.844752,8.824265,-0.9856415,0
6.844752,8.824265,-1.06826,0
6.844752,8.824265,-1.150993,0
6.844752,8.824265,-1.233854,0
6.844752,8.824265,-1.316845,0
6.738527,8.68732,-1.37826,0
6.432179,8.292382,-1.393871,0
6.151978,7.931093,-1.408154,0
5.894654,7.599375,-1.421267,0
5.657497,7.293595,-1.433355,0
5.438202,7.0109,-1.44453,0
5.234788,6.74868,-1.454895,0
5.045583,6.504772,-1.464537,0
4.868577,6.27655,-1.473347,0
4.702487,6.062413,-1.481384,0
4.546924,5.861869,-1.488913,0
4.400919,5.673627,-1.495977,0
4.371484,5.635683,-1.540649,0
4.371457,5.635668,-1.595501,0
4.368479,5.631821,-1.649405,0
6.869498,8.824268,2.674463,0
6.869498,8.824268,2.587885,0
6.869498,8.824268,2.5016,0
6.869498,8.824268,2.415598,0
6.869498,8.824268,2.32987,0
6.869498,8.824268,2.244402,0
6.869498,8.824268,2.159185,0
6.869498,8.824268,2.074209,0
6.869498,8.824268,1.989466,0
6.869498,8.824268,1.90494,0
6.869498,8.824268,1.820629,0
6.869498,8.824268,1.736517,0
6.869498,8.824268,1.652596,0
6.869498,8.824268,1.568857,0
6.869498,8.824268,1.485292,0
6.869498,8.824268,1.401888,0
6.869498,8.824268,1.318638,0
6.869498,8.824268,1.235531,0
6.869498,8.824268,1.152559,0
6.869498,8.824268,1.069714,0
6.869498,8.824268,0.9869823,0
6.869498,8.824268,0.9043598,0
6.869498,8.824268,0.8218346,0
6.869498,8.824268,0.739399,0
6.869498,8.824268,0.6570415,0
6.869498,8.824268,0.5747566,0
6.869498,8.824268,0.4925327,0
6.869498,8.824268,0.4103642,0
6.869498,8.824268,0.3282375,0
6.869498,8.824268,0.2461452,0
6.869498,8.824268,0.1640835,0
6.869498,8.824268,0.08203888,0
6.869498,8.824268,-1.907349E-06,0
6.869498,8.824268,-0.08203888,0
6.869498,8.824268,-0.1640835,0
6.869498,8.824268,-0.2461491,0
6.869498,8.824268,-0.3282394,0
6.869498,8.824268,-0.4103642,0
6.869498,8.824268,-0.4925365,0
6.869498,8.824268,-0.5747585,0
6.869498,8.824268,-0.6570454,0
6.869498,8.824268,-0.7394009,0
